0,0,0,0,0,0,0,0,0,0,0,0,0,0,0,0,0,0,0,0,0,0,0,0,0,0,0,0,0,0,0,0,0,0,0,0,0,0,0,0,0,0,0,1980,1925,1915,1915,1925,1915,1915,1915,1915,1915,1915,2039,2039,2039,2039,2039,2039,2039,2051,2039,2039,2039,2039,2051,2051,2039,2039,2039,2039,2039,2039,2039,2039,2039,2039,2039,2039,2051,2051,2051,2051,2051,2051,2039,2051,2039,2039,2039,2039,2039,2039,2051,2051,2051,2051,2051,2051,2051,2051,2051,2051,2051,2051,2039,2039,2039,2039,2039,2039,2039,2039,2051,2051,2051,2051,2051,2051,2051,2051,2051,2039,2039,2051,2051,2051,2051,2051,2051,2051,2051,2051,2051,2051,2051,2051,2051,2051,2051,2051,2039,2039,2039,2039,2051,2051,2051,2051,2051,2051,2051,2051,2051,2051,2051,2051,2051,2051,2039,2039,2039,2039,2039,2039,2039,2039,2039,2051,2051,2051,2051,2051,2051,2051,2051,2051,2051,2051,2051,2051,2051,2051,2051,2051,2051,2051,2051,2051,2051,2051,2051,2051,2051,2051,2051,2051,2051,2051,2051,2051,2051,2051,2039,2039,2039,2039,2039,2039,2039,2051,2051,2039,2039,2039,2039,2051,2051,2051,2051,2051,2051,2051,2051,2051,2051,2039,2039,2039,2039,2039,2039,2039,2039,2039,2039,2039,2051,2051,2051,2051,2051,2051,2051,2039,2039,2039,2039,2039,2039,2039,2051,2051,2051,2051,2051,2051,2039,2039,2039,2051,2051,2051,2051,2051,2051,2051,2051,2051,2051,2051,2051,2051,2051,2051,2051,2051,2051,2051,2051,2051,2051,2051,2051,2051,2051,2051,2051,2051,2051,2051,2051,2051,2051,2051,2051,2051,2051,2051,2051,2051,2051,2051,2051,2051,2051,2051,2051,2051,2051,2063,2063,2063,2063,2063,2063,2063,2063,2063,2063,2063,2063,2063,2063,2063,2063,2063,2063,2063,2063,2063,2063,2063,2063,2076,2076,2076,2076,2076,2076,2076,2076,2076,2076,2076,2076,2063,2063,2076,2076,2076,2076,2076,2076,2076,2076,2076,2076,2076,2076,2088,2088,2088,2088,2088,2088,2088,2088,2088,2088,2101,2101,2101,2088,2088,2101,2088,2088,2088,2101,2101,2101,2101,2101,2101,2101,2101,2088,2088,2088,2088,2088,2088,2088,2101,2101,2101,2101,2101,2101,2101,2101,2101,2101,2101,2101,2101,2101,2101,2101,2101,2101,2101,2101,2101,2101,2101,2101,2101,2101,2101,2101,2101,2101,2101,2101,2101,2101,2101,2101,2101,2101,2101,2101,2101,2101,2101,2114,2114,2114,2114,2114,2114,2114,2114,2114,2114,2114,2114,2114,2114,2114,2114,2114,2114,2114,2114,2114,2114,2114,2114,2114,2114,2114,2114,2114,2114,2114,2127,2127,2127,2114,2114,2114,2114,2114,2114,2114,2114,2127,2127,2114,2114,2114,2114,2114,2114,2114,2114,2114,2114,2114,2114,2114,2114,2114,2127,2127,2127,2127,2127,2114,2114,2114,2114,2114,2127,2127,2127,2127,2114,2114,2114,2127,2127,2114,2114,2114,2114,2114,2114,2114,2114,2114,2127,2127,2114,2114,2114,2114,2114,2114,2114,2114,2114,2114,2127,2127,2127,2114,2114,2114,2114,2127,2114,2114,2114,2114,2114,2114,2114,2114,2114,2127,2127,2140,2140,2140,2140,2140,2140,2140,2140,2140,2140,2140,2140,2140,2153,2153,2140,2140,2140,2140,2140,2140,2140,2140,2140,2140,2140,2140,2140,2140,2153,2153,2153,2153,2153,2153,2153,2153,2153,2153,2153,2153,2153,2153,2140,2140,2140,2140,2140,2140,2140,2127,2127,2140,2127,2127,2127,2140,2140,2140,2140,2140,2140,2140,2127,2127,2127,2140,2140,2140,2140,2127,2127,2114,2114,2114,2114,2114,2114,2114,0,0,0,0,0
0,0,0,0,0,0,0,0,0,0,0,0,0,0,0,0,0,0,0,0,0,0,0,0,0,0,0,0,0,0,0,0,0,0,0,0,0,0,0,0,0,0,0,1936,1925,1925,1925,1925,1915,1915,1915,1915,1915,1915,1925,2051,2051,2039,2039,2039,2039,2051,2039,2039,2039,2039,2051,2051,2051,2051,2051,2051,2051,2051,2051,2051,2051,2051,2051,2051,2051,2051,2051,2051,2051,2051,2063,2063,2051,2051,2051,2051,2051,2051,2051,2051,2051,2051,2051,2051,2051,2051,2051,2051,2051,2051,2051,2051,2051,2051,2039,2039,2039,2051,2051,2051,2051,2051,2051,2051,2051,2051,2051,2051,2051,2051,2051,2051,2051,2051,2063,2063,2063,2063,2063,2063,2051,2051,2051,2051,2051,2051,2051,2051,2051,2051,2051,2051,2051,2051,2051,2063,2063,2063,2063,2051,2051,2051,2051,2051,2051,2051,2051,2051,2051,2051,2051,2051,2051,2051,2051,2051,2051,2051,2051,2051,2051,2051,2051,2051,2051,2051,2051,2063,2051,2051,2051,2051,2051,2051,2051,2051,2051,2051,2051,2051,2051,2051,2051,2051,2051,2051,2051,2051,2051,2051,2051,2051,2051,2051,2051,2051,2051,2051,2051,2051,2051,2051,2051,2051,2051,2051,2051,2051,2051,2051,2051,2051,2051,2051,2051,2051,2051,2051,2051,2051,2051,2051,2051,2051,2051,2051,2051,2051,2051,2051,2039,2039,2051,2051,2051,2051,2051,2051,2051,2051,2051,2051,2051,2051,2051,2051,2051,2051,2051,2051,2051,2051,2051,2051,2051,2051,2051,2051,2051,2051,2051,2051,2051,2051,2051,2051,2051,2051,2051,2051,2051,2051,2051,2051,2051,2051,2051,2051,2063,2063,2063,2063,2063,2063,2063,2051,2051,2051,2051,2051,2063,2063,2063,2063,2063,2063,2063,2076,2076,2063,2063,2063,2063,2063,2063,2063,2063,2063,2063,2063,2063,2063,2063,2076,2063,2063,2076,2076,2076,2088,2088,2076,2076,2088,2088,2088,2076,2076,2088,2076,2076,2076,2076,2076,2076,2076,2076,2076,2088,2088,2088,2088,2088,2088,2088,2088,2088,2088,2101,2101,2088,2088,2088,2088,2101,2101,2101,2101,2101,2101,2101,2101,2101,2101,2101,2101,2101,2101,2101,2101,2101,2101,2101,2101,2101,2101,2101,2101,2101,2101,2101,2101,2101,2101,2101,2101,2101,2101,2101,2101,2114,2101,2101,2101,2101,2114,2101,2101,2101,2101,2101,2101,2101,2101,2101,2101,2101,2101,2101,2101,2101,2101,2101,2101,2101,2101,2101,2114,2101,2101,2114,2114,2114,2114,2114,2114,2114,2114,2114,2114,2114,2114,2114,2114,2114,2114,2114,2127,2127,2127,2127,2127,2127,2114,2114,2127,2127,2114,2114,2127,2127,2127,2127,2127,2127,2127,2127,2127,2127,2127,2114,2114,2127,2127,2127,2127,2127,2127,2127,2114,2114,2114,2114,2114,2114,2114,2114,2114,2127,2140,2140,2140,2140,2127,2127,2127,2127,2127,2127,2127,2127,2127,2127,2127,2127,2127,2127,2127,2127,2127,2127,2114,2114,2114,2127,2114,2114,2114,2127,2127,2127,2114,2114,2114,2114,2114,2114,2114,2114,2114,2127,2127,2127,2127,2127,2127,2127,2127,2127,2127,2127,2127,2127,2127,2127,2127,2127,2127,2127,2140,2140,2140,2140,2153,2140,2140,2140,2153,2153,2153,2153,2153,2153,2153,2153,2153,2153,2153,2153,2140,2140,2140,2140,2140,2140,2140,2140,2153,2153,2153,2153,2153,2153,2153,2153,2153,2153,2153,2153,2153,2153,2153,2153,2153,2153,2153,2140,2140,2140,2140,2140,2140,2140,2140,2140,2140,2153,2153,2140,2140,2140,2140,2140,2140,2153,2140,2140,2140,2140,2140,2140,2140,2127,2114,2114,2114,2114,2114,2114,0,0,0,0,0
0,0,0,0,0,0,0,0,0,0,0,0,0,0,0,0,0,0,0,0,0,0,0,0,0,0,0,0,0,0,0,0,0,0,0,0,0,0,0,0,0,0,0,1936,1925,1925,1925,1925,1915,1915,1925,1925,1925,1915,1915,1915,1915,1915,1915,2027,2015,2015,1958,1958,2039,2039,2051,2051,2039,2039,2051,2051,2051,2051,2039,2039,2051,2051,2051,2051,2051,2051,2051,2051,2063,2063,2063,2063,2063,2063,2051,2051,2051,2051,2051,2051,2051,2051,2051,2051,2051,2051,2051,2051,2063,2063,2051,2051,2051,2051,2051,2051,2051,2051,2051,2051,2051,2051,2051,2051,2051,2051,2051,2051,2051,2051,2051,2051,2051,2051,2063,2063,2063,2076,2076,2076,2076,2076,2063,2063,2063,2051,2051,2051,2051,2051,2051,2051,2063,2063,2063,2063,2063,2063,2063,2051,2051,2051,2051,2051,2051,2051,2051,2051,2051,2051,2051,2051,2051,2063,2063,2063,2063,2063,2063,2051,2051,2051,2051,2051,2051,2051,2063,2063,2063,2063,2063,2063,2051,2051,2051,2051,2063,2063,2063,2063,2063,2063,2063,2051,2051,2051,2051,2051,2051,2051,2051,2051,2051,2051,2051,2051,2051,2051,2051,2051,2051,2051,2051,2051,2051,2051,2051,2051,2051,2051,2051,2051,2051,2051,2051,2051,2051,2051,2051,2051,2051,2051,2051,2063,2063,2051,2051,2051,2051,2051,2051,2051,2051,2051,2051,2051,2051,2051,2051,2051,2051,2051,2051,2051,2051,2051,2051,2051,2051,2063,2051,2051,2051,2051,2051,2051,2051,2051,2063,2063,2063,2063,2063,2051,2051,2051,2051,2051,2051,2051,2051,2051,2051,2051,2063,2063,2063,2063,2063,2063,2063,2063,2063,2063,2063,2063,2063,2063,2063,2063,2063,2063,2063,2063,2063,2076,2076,2076,2076,2076,2076,2076,2076,2076,2076,2076,2076,2076,2076,2076,2076,2076,2076,2076,2076,2076,2076,2076,2076,2088,2088,2088,2088,2088,2088,2088,2088,2088,2088,2088,2088,2088,2088,2088,2088,2088,2088,2088,2088,2088,2088,2088,2101,2101,2101,2101,2101,2101,2101,2101,2101,2101,2101,2101,2101,2101,2101,2101,2101,2101,2101,2101,2101,2101,2101,2101,2101,2101,2101,2101,2101,2101,2101,2101,2101,2101,2101,2101,2101,2101,2101,2101,2101,2101,2114,2114,2114,2114,2114,2114,2114,2114,2101,2101,2101,2114,2101,2101,2101,2101,2101,2101,2101,2101,2114,2114,2114,2114,2114,2101,2101,2101,2114,2114,2114,2114,2114,2114,2114,2114,2114,2114,2114,2114,2114,2114,2127,2127,2114,2114,2114,2114,2114,2114,2114,2127,2127,2127,2127,2127,2127,2127,2127,2127,2127,2127,2127,2127,2127,2127,2127,2127,2127,2140,2140,2127,2127,2127,2127,2127,2127,2127,2127,2127,2140,2140,2127,2127,2127,2127,2127,2127,2127,2114,2114,2127,2127,2127,2140,2140,2140,2140,2140,2127,2127,2127,2127,2127,2127,2127,2127,2127,2127,2140,2140,2140,2140,2140,2140,2140,2140,2127,2127,2127,2127,2127,2127,2127,2127,2140,2140,2127,2127,2127,2127,2114,2114,2127,2127,2127,2127,2127,2127,2140,2140,2127,2127,2127,2140,2140,2140,2127,2127,2127,2127,2127,2127,2127,2140,2153,2153,2153,2153,2153,2153,2153,2153,2153,2153,2167,2167,2153,2153,2153,2153,2153,2153,2153,2153,2153,2153,2153,2153,2153,2140,2153,2153,2153,2153,2153,2153,2153,2153,2153,2167,2167,2167,2167,2153,2153,2153,2153,2153,2153,2153,2153,2153,2153,2153,2153,2153,2153,2153,2153,2153,2153,2153,2153,2153,2153,2153,2153,2153,2153,2153,2153,2153,2153,2153,2153,2153,2140,2140,2127,2127,2127,2127,2127,2127,0,0,0,0,0
0,0,0,0,0,0,0,0,0,0,0,0,0,0,0,0,0,0,0,0,0,0,0,0,0,0,0,0,0,0,0,0,0,0,0,0,0,0,0,0,0,0,0,1936,1925,1925,1925,1925,1925,1925,1925,1925,1925,1915,1915,1915,1915,1915,1915,1925,1936,1947,1947,1958,1969,1969,2027,2027,2027,2027,2027,2027,2039,2027,2027,2039,2039,2039,2051,2051,2051,2051,2063,2063,2063,2063,2063,2063,2076,2076,2063,2063,2063,2063,2063,2063,2063,2051,2051,2063,2063,2063,2063,2063,2076,2076,2063,2063,2063,2063,2051,2051,2051,2063,2063,2063,2063,2063,2076,2063,2051,2051,2051,2051,2051,2051,2063,2063,2063,2063,2076,2076,2076,2076,2076,2088,2076,2076,2076,2076,2076,2076,2063,2063,2063,2063,2063,2063,2076,2076,2076,2076,2063,2063,2063,2063,2063,2051,2051,2051,2051,2051,2051,2051,2051,2051,2051,2051,2063,2063,2063,2076,2076,2076,2076,2063,2063,2063,2063,2063,2051,2051,2063,2063,2063,2063,2063,2063,2063,2063,2063,2063,2063,2076,2076,2076,2076,2076,2063,2063,2063,2063,2051,2051,2051,2051,2051,2051,2051,2051,2051,2051,2051,2051,2051,2051,2051,2051,2051,2051,2051,2051,2051,2051,2051,2051,2051,2051,2051,2051,2051,2051,2051,2051,2063,2063,2063,2063,2063,2063,2063,2051,2051,2051,2051,2051,2051,2051,2051,2051,2063,2063,2063,2063,2063,2063,2051,2051,2051,2051,2051,2051,2051,2051,2063,2063,2063,2063,2063,2063,2063,2063,2063,2063,2063,2063,2063,2063,2063,2063,2063,2051,2051,2051,2051,2063,2063,2063,2063,2063,2076,2076,2063,2063,2076,2076,2063,2063,2076,2076,2076,2076,2063,2063,2076,2076,2076,2076,2076,2076,2076,2076,2076,2088,2088,2088,2088,2088,2088,2088,2088,2088,2088,2088,2088,2088,2076,2076,2076,2076,2076,2076,2076,2088,2088,2088,2101,2101,2101,2101,2101,2101,2101,2101,2101,2101,2101,2101,2101,2101,2101,2101,2101,2101,2101,2101,2101,2101,2101,2101,2101,2101,2101,2101,2101,2101,2101,2101,2101,2101,2101,2101,2114,2114,2114,2114,2114,2114,2101,2101,2101,2101,2101,2101,2114,2114,2114,2114,2114,2114,2101,2101,2114,2114,2114,2114,2114,2114,2114,2114,2114,2114,2114,2114,2114,2114,2114,2114,2114,2114,2114,2114,2114,2114,2114,2114,2114,2114,2114,2114,2114,2114,2114,2114,2114,2114,2114,2114,2127,2127,2127,2127,2127,2127,2114,2114,2114,2127,2127,2127,2127,2127,2127,2127,2127,2127,2127,2127,2127,2127,2127,2127,2140,2140,2140,2140,2140,2140,2140,2127,2127,2127,2127,2127,2127,2127,2127,2127,2127,2140,2140,2140,2127,2127,2127,2127,2127,2127,2140,2140,2140,2140,2140,2140,2140,2140,2127,2140,2140,2127,2127,2127,2127,2140,2140,2140,2140,2140,2140,2140,2140,2140,2140,2140,2140,2140,2140,2140,2140,2140,2153,2140,2140,2140,2153,2153,2140,2127,2127,2140,2140,2140,2140,2140,2140,2140,2140,2140,2140,2140,2127,2127,2127,2127,2140,2140,2140,2140,2140,2140,2140,2140,2140,2140,2140,2153,2153,2140,2140,2140,2140,2140,2140,2140,2153,2153,2153,2153,2153,2153,2153,2153,2167,2167,2167,2167,2167,2167,2167,2167,2153,2153,2153,2153,2153,2153,2153,2153,2153,2167,2153,2153,2153,2153,2153,2153,2153,2153,2153,2153,2167,2167,2167,2167,2153,2153,2153,2153,2153,2153,2153,2153,2153,2153,2167,2167,2167,2167,2167,2167,2167,2167,2167,2167,2153,2153,2153,2153,2153,2153,2153,2153,2153,2153,2153,2153,2153,2153,2140,2140,2140,2140,2140,2140,2140,0,0,0,0,0
0,0,0,0,0,0,0,0,0,0,0,0,0,0,0,0,0,0,0,0,0,0,0,0,0,0,0,0,0,0,0,0,0,0,0,0,0,0,0,0,0,0,0,1936,1925,1925,1925,1925,1925,1925,1925,1925,1925,1925,1915,1915,1915,1915,1915,1925,1936,1936,1947,1947,1958,1969,1980,1992,1992,2003,2003,1969,1969,1958,1958,1958,1958,2039,2051,2051,2051,2051,2063,2063,2063,2063,2076,2076,2088,2088,2076,2076,2076,2076,2076,2076,2063,2063,2063,2076,2076,2088,2088,2088,2088,2088,2088,2088,2088,2076,2076,2076,2076,2076,2063,2076,2076,2076,2076,2076,2063,2063,2063,2063,2076,2076,2076,2076,2076,2076,2076,2076,2076,2088,2088,2088,2088,2088,2076,2076,2076,2076,2076,2076,2076,2076,2076,2076,2076,2076,2076,2076,2076,2076,2076,2076,2076,2063,2063,2063,2063,2063,2063,2063,2063,2063,2063,2063,2063,2076,2076,2076,2076,2076,2076,2076,2076,2063,2063,2076,2076,2076,2076,2076,2076,2076,2076,2076,2063,2063,2063,2076,2076,2076,2076,2076,2088,2076,2076,2076,2063,2063,2063,2063,2051,2051,2051,2051,2051,2051,2051,2051,2063,2063,2063,2063,2063,2063,2063,2063,2063,2063,2063,2063,2063,2063,2063,2063,2063,2063,2063,2063,2063,2063,2063,2063,2063,2063,2063,2076,2076,2063,2063,2063,2063,2051,2051,2051,2063,2063,2063,2063,2063,2063,2063,2063,2063,2063,2063,2063,2063,2063,2063,2063,2063,2076,2076,2076,2076,2076,2076,2076,2063,2063,2063,2063,2063,2063,2063,2063,2063,2063,2051,2051,2063,2063,2063,2063,2076,2076,2076,2076,2076,2076,2076,2076,2076,2076,2076,2076,2076,2076,2076,2076,2076,2076,2076,2076,2076,2088,2088,2088,2088,2088,2088,2088,2088,2088,2088,2088,2088,2088,2088,2088,2088,2088,2076,2076,2076,2088,2088,2088,2088,2088,2101,2114,2101,2101,2101,2101,2101,2101,2101,2101,2101,2101,2101,2101,2101,2101,2101,2101,2101,2101,2101,2101,2101,2101,2101,2114,2114,2114,2114,2114,2114,2114,2114,2114,2114,2114,2114,2114,2114,2114,2114,2114,2114,2114,2114,2114,2101,2101,2101,2101,2114,2114,2114,2114,2114,2114,2114,2114,2114,2114,2114,2114,2114,2114,2114,2114,2114,2127,2127,2127,2127,2127,2114,2114,2114,2114,2114,2114,2114,2114,2114,2114,2114,2114,2114,2114,2114,2114,2114,2114,2127,2127,2127,2127,2127,2140,2140,2140,2140,2140,2127,2127,2127,2127,2140,2127,2127,2127,2127,2127,2127,2127,2140,2140,2140,2140,2140,2140,2140,2140,2140,2140,2140,2140,2140,2140,2140,2140,2140,2127,2127,2127,2140,2140,2140,2140,2140,2140,2140,2140,2140,2140,2140,2140,2140,2140,2140,2140,2140,2140,2140,2140,2140,2140,2140,2140,2140,2140,2140,2140,2140,2140,2140,2153,2153,2140,2140,2153,2153,2153,2153,2140,2140,2153,2153,2153,2153,2153,2153,2153,2153,2153,2153,2140,2140,2140,2140,2140,2140,2153,2153,2153,2153,2153,2153,2140,2140,2127,2127,2127,2140,2140,2140,2140,2153,2153,2153,2153,2153,2153,2153,2153,2153,2153,2153,2153,2140,2140,2140,2153,2153,2153,2153,2153,2167,2167,2167,2167,2167,2167,2167,2167,2167,2167,2167,2167,2167,2167,2167,2167,2167,2153,2167,2153,2153,2167,2167,2167,2153,2153,2153,2153,2167,2167,2167,2167,2167,2167,2167,2167,2167,2153,2153,2153,2167,2167,2167,2153,2153,2153,2167,2167,2167,2167,2167,2167,2167,2167,2167,2167,2167,2153,2153,2153,2153,2167,2153,2153,2167,2167,2167,2167,2153,2153,2153,2140,2140,2140,2140,2140,2140,0,0,0,0,0
0,0,0,0,0,0,0,0,0,0,0,0,0,0,0,0,0,0,0,0,0,0,0,0,0,0,0,0,0,0,0,0,0,0,0,0,0,0,0,0,0,0,0,1936,1936,1925,1925,1936,1925,1925,1925,1925,1925,1925,1915,1915,1915,1915,1915,1925,1936,1936,1947,1947,1958,1969,1980,1980,1980,1980,1980,1969,1969,1958,1958,1958,1958,2003,2027,2039,2039,2051,2063,2063,2076,2076,2076,2076,2076,2088,2076,2076,2076,2076,2076,2088,2088,2076,2076,2088,2088,2088,2088,2088,2088,2088,2088,2088,2088,2088,2076,2076,2076,2076,2076,2076,2076,2076,2088,2088,2076,2076,2076,2076,2088,2088,2088,2088,2088,2088,2088,2088,2088,2088,2088,2088,2088,2088,2088,2076,2076,2076,2076,2076,2076,2076,2076,2076,2076,2076,2076,2076,2076,2076,2088,2076,2076,2076,2076,2076,2076,2063,2063,2063,2063,2063,2063,2063,2076,2076,2076,2076,2088,2088,2088,2076,2076,2076,2076,2076,2076,2076,2076,2076,2076,2076,2076,2076,2076,2076,2076,2076,2088,2088,2088,2088,2088,2088,2076,2076,2063,2063,2063,2063,2063,2063,2063,2063,2063,2063,2063,2063,2063,2063,2063,2063,2063,2063,2063,2063,2063,2063,2063,2063,2063,2063,2063,2063,2063,2063,2063,2063,2063,2063,2076,2076,2076,2076,2076,2076,2076,2076,2076,2076,2076,2063,2063,2063,2063,2063,2063,2063,2076,2076,2076,2076,2076,2076,2076,2076,2076,2076,2076,2076,2076,2076,2076,2076,2076,2076,2076,2076,2076,2076,2076,2076,2076,2076,2076,2063,2063,2063,2063,2063,2063,2076,2076,2076,2076,2088,2088,2088,2076,2076,2088,2076,2076,2076,2076,2088,2088,2088,2088,2088,2088,2088,2088,2088,2088,2088,2088,2088,2088,2088,2088,2088,2088,2088,2088,2088,2088,2101,2101,2101,2101,2088,2088,2088,2088,2088,2101,2101,2101,2101,2101,2114,2114,2114,2114,2114,2114,2114,2114,2114,2114,2114,2114,2114,2114,2101,2101,2101,2101,2101,2114,2114,2114,2114,2114,2114,2114,2114,2114,2114,2114,2114,2114,2114,2114,2114,2114,2114,2114,2114,2127,2114,2114,2114,2114,2114,2114,2114,2114,2114,2114,2114,2114,2114,2114,2114,2114,2114,2127,2127,2114,2114,2114,2114,2114,2127,2127,2127,2140,2140,2140,2127,2127,2114,2114,2114,2127,2127,2127,2127,2127,2127,2127,2127,2114,2127,2127,2127,2127,2127,2127,2127,2127,2127,2140,2140,2140,2140,2140,2140,2140,2140,2140,2140,2140,2140,2127,2127,2140,2140,2140,2140,2140,2140,2140,2140,2140,2140,2153,2153,2140,2140,2140,2140,2140,2140,2140,2140,2140,2140,2140,2140,2140,2140,2140,2153,2153,2153,2153,2153,2140,2140,2140,2140,2140,2140,2140,2153,2153,2153,2153,2153,2153,2153,2153,2140,2140,2140,2140,2140,2153,2153,2153,2153,2153,2153,2153,2153,2153,2153,2153,2153,2153,2153,2153,2153,2153,2153,2153,2153,2153,2153,2153,2140,2140,2153,2153,2153,2153,2153,2153,2153,2153,2153,2153,2153,2153,2153,2153,2153,2153,2153,2153,2153,2153,2153,2153,2153,2153,2167,2167,2167,2167,2167,2167,2167,2153,2153,2153,2153,2153,2153,2153,2167,2167,2167,2167,2167,2181,2181,2181,2167,2167,2167,2167,2167,2167,2167,2167,2167,2167,2167,2167,2167,2167,2167,2167,2181,2167,2167,2167,2167,2167,2167,2167,2167,2167,2167,2167,2167,2167,2167,2167,2167,2167,2167,2167,2167,2167,2167,2167,2167,2167,2167,2167,2167,2167,2167,2167,2167,2167,2167,2167,2167,2167,2167,2167,2167,2167,2167,2167,2167,2153,2153,2153,2153,2153,2153,2153,2153,2140,0,0,0,0,0
0,0,0,0,0,0,0,0,0,0,0,0,0,0,0,0,0,0,0,0,0,0,0,0,0,0,0,0,0,0,0,0,0,0,0,0,0,0,0,0,0,0,0,1947,1936,1936,1936,1936,1936,1925,1925,1925,1925,1925,1925,1925,1925,1925,1925,1925,1936,1936,1947,1958,1958,1969,1969,1969,1980,1969,1969,1969,1969,1958,1958,1958,1969,1969,2003,2027,2039,2051,2063,2063,2076,2076,2076,2076,2076,2076,2076,2076,2076,2076,2088,2088,2088,2088,2088,2088,2088,2088,2088,2088,2088,2088,2101,2101,2101,2101,2101,2088,2088,2088,2076,2076,2076,2088,2088,2088,2076,2076,2088,2088,2088,2088,2088,2088,2088,2088,2101,2101,2088,2088,2088,2088,2088,2088,2088,2088,2088,2088,2088,2088,2088,2076,2076,2076,2088,2088,2088,2088,2088,2088,2088,2076,2076,2088,2088,2088,2088,2076,2076,2076,2076,2076,2076,2076,2088,2076,2076,2088,2088,2088,2088,2088,2088,2088,2088,2088,2088,2076,2076,2088,2088,2088,2076,2076,2076,2076,2076,2076,2088,2088,2088,2088,2088,2088,2088,2088,2076,2076,2076,2076,2063,2063,2063,2063,2063,2063,2063,2063,2076,2076,2063,2063,2063,2063,2063,2076,2076,2076,2076,2076,2076,2076,2076,2076,2076,2076,2076,2076,2076,2076,2076,2076,2076,2076,2088,2088,2076,2076,2076,2076,2076,2076,2076,2076,2076,2076,2076,2076,2076,2076,2076,2076,2076,2076,2076,2076,2076,2076,2076,2076,2076,2088,2088,2076,2076,2088,2088,2088,2088,2088,2088,2088,2088,2076,2076,2076,2076,2076,2076,2076,2076,2088,2088,2088,2088,2088,2088,2088,2088,2088,2088,2088,2088,2088,2088,2088,2088,2088,2088,2088,2088,2088,2088,2088,2088,2101,2101,2101,2101,2101,2101,2101,2101,2101,2101,2101,2101,2101,2101,2101,2101,2101,2088,2088,2088,2101,2101,2101,2101,2101,2101,2114,2114,2114,2114,2114,2114,2114,2114,2114,2114,2114,2114,2114,2114,2114,2114,2114,2114,2114,2114,2114,2114,2114,2114,2114,2114,2114,2114,2114,2114,2114,2114,2114,2114,2114,2114,2114,2127,2127,2127,2114,2114,2114,2114,2114,2114,2114,2114,2114,2127,2127,2127,2127,2127,2127,2127,2127,2127,2127,2127,2127,2127,2127,2127,2127,2140,2140,2140,2140,2140,2140,2127,2127,2127,2127,2127,2127,2127,2140,2140,2140,2140,2140,2140,2140,2127,2127,2140,2140,2140,2140,2140,2140,2140,2140,2140,2140,2140,2140,2140,2140,2140,2140,2153,2140,2140,2140,2140,2140,2153,2153,2153,2153,2153,2153,2153,2153,2153,2153,2153,2153,2153,2153,2153,2153,2153,2153,2153,2153,2153,2153,2153,2153,2153,2153,2153,2153,2153,2153,2153,2153,2153,2153,2153,2153,2153,2153,2153,2153,2153,2153,2153,2153,2153,2153,2140,2140,2153,2153,2153,2153,2153,2153,2153,2153,2153,2153,2153,2153,2153,2153,2153,2153,2153,2153,2153,2153,2153,2153,2153,2153,2153,2153,2153,2153,2153,2153,2153,2153,2153,2167,2167,2153,2167,2167,2153,2153,2153,2153,2153,2153,2153,2153,2153,2153,2153,2153,2153,2167,2167,2167,2167,2167,2167,2167,2167,2167,2153,2167,2153,2153,2153,2167,2167,2167,2167,2167,2181,2181,2181,2181,2181,2181,2167,2167,2167,2167,2167,2167,2167,2181,2181,2181,2181,2181,2194,2194,2181,2181,2167,2167,2181,2181,2167,2167,2167,2167,2167,2167,2167,2167,2167,2167,2167,2167,2167,2167,2167,2167,2181,2181,2181,2181,2181,2181,2181,2181,2167,2167,2167,2167,2167,2167,2167,2167,2167,2167,2167,2167,2167,2167,2153,2153,2153,2153,2153,2153,2153,2153,0,0,0,0,0,0
0,0,0,0,0,0,0,0,0,0,0,0,0,0,0,0,0,0,0,0,0,0,0,0,0,0,0,0,0,0,0,0,0,0,0,0,0,0,0,0,0,0,0,1947,1936,1936,1936,1936,1936,1936,1925,1925,1925,1925,1925,1925,1925,1925,1925,1925,1936,1936,1947,1958,1958,1969,1969,1969,1969,1969,1969,1958,1958,1958,1958,1958,1969,1969,1980,2015,2027,2051,2051,2076,2076,2076,2076,2076,2076,2076,2076,2076,2076,2076,2088,2088,2088,2088,2088,2088,2088,2088,2088,2088,2088,2088,2101,2101,2101,2114,2114,2101,2101,2088,2088,2088,2088,2088,2088,2088,2088,2088,2088,2101,2101,2101,2101,2101,2101,2101,2101,2101,2101,2101,2101,2101,2101,2101,2101,2101,2101,2101,2101,2088,2088,2088,2088,2088,2088,2088,2088,2088,2088,2088,2088,2088,2088,2088,2088,2088,2088,2088,2088,2088,2088,2088,2088,2088,2088,2088,2088,2088,2088,2088,2088,2088,2088,2088,2088,2088,2088,2088,2088,2088,2088,2088,2088,2088,2076,2076,2088,2088,2088,2088,2088,2088,2088,2088,2088,2088,2088,2088,2076,2076,2076,2076,2076,2076,2076,2076,2076,2076,2076,2076,2076,2063,2063,2063,2076,2076,2076,2076,2076,2076,2076,2076,2076,2076,2076,2088,2076,2076,2076,2076,2088,2088,2088,2088,2088,2088,2088,2088,2088,2088,2088,2076,2076,2076,2076,2076,2088,2076,2076,2076,2076,2076,2076,2076,2076,2088,2076,2076,2088,2088,2088,2088,2088,2088,2088,2088,2088,2088,2088,2088,2088,2088,2088,2088,2088,2076,2076,2088,2076,2076,2088,2088,2088,2088,2088,2088,2088,2088,2088,2088,2088,2088,2088,2088,2088,2088,2088,2101,2101,2101,2101,2101,2101,2101,2101,2101,2101,2101,2101,2101,2101,2101,2101,2101,2101,2101,2101,2101,2101,2101,2101,2101,2101,2101,2101,2101,2101,2101,2101,2101,2101,2127,2127,2114,2114,2127,2127,2127,2114,2114,2114,2114,2114,2114,2114,2114,2114,2114,2114,2114,2114,2114,2127,2114,2114,2114,2114,2114,2114,2114,2114,2114,2114,2114,2114,2114,2114,2114,2127,2127,2127,2127,2127,2127,2127,2127,2114,2114,2127,2127,2127,2127,2127,2127,2140,2140,2140,2140,2140,2140,2140,2127,2127,2127,2127,2127,2140,2140,2140,2140,2140,2140,2140,2127,2140,2140,2140,2140,2153,2153,2153,2153,2153,2153,2153,2153,2140,2140,2140,2140,2140,2140,2140,2140,2140,2140,2140,2140,2153,2153,2153,2153,2140,2140,2153,2153,2153,2153,2153,2153,2153,2153,2153,2153,2153,2153,2153,2153,2153,2153,2153,2153,2153,2153,2153,2153,2153,2153,2153,2153,2153,2153,2153,2153,2153,2153,2153,2153,2153,2167,2153,2153,2153,2153,2153,2153,2153,2153,2167,2153,2153,2153,2167,2167,2167,2153,2153,2153,2153,2153,2153,2153,2153,2153,2153,2153,2153,2153,2153,2153,2153,2153,2153,2153,2153,2153,2153,2153,2153,2153,2167,2167,2167,2153,2153,2153,2153,2153,2167,2167,2167,2167,2167,2167,2167,2167,2167,2167,2167,2167,2167,2167,2167,2167,2167,2167,2167,2167,2167,2167,2167,2167,2167,2167,2167,2167,2167,2167,2167,2167,2167,2167,2167,2167,2167,2167,2167,2167,2181,2181,2181,2181,2181,2181,2181,2167,2167,2181,2181,2181,2181,2181,2194,2194,2194,2194,2194,2194,2194,2194,2181,2181,2181,2194,2181,2181,2181,2181,2181,2181,2167,2167,2167,2167,2181,2181,2181,2181,2181,2181,2181,2181,2181,2181,2194,2194,2194,2181,2181,2181,2181,2181,2181,2167,2167,2167,2167,2167,2167,2167,2167,2167,2153,2153,2153,2153,2153,2153,2153,2153,0,0,0,0,0,0
0,0,0,0,0,0,0,0,0,0,0,0,0,0,0,0,0,0,0,0,0,0,0,0,0,0,0,0,0,0,0,0,0,0,0,0,0,0,0,0,0,0,0,1947,1947,1947,1947,1947,1947,1936,1936,1936,1936,1936,1925,1925,1925,1925,1925,1936,1936,1936,1958,1958,1958,1969,1969,1969,1969,1958,1958,1958,1958,1958,1958,1958,1969,1969,1969,1980,2003,2027,2051,2076,2076,2076,2076,2076,2076,2076,2088,2088,2076,2076,2088,2088,2088,2088,2088,2088,2088,2088,2088,2088,2088,2088,2101,2114,2114,2114,2114,2114,2101,2101,2101,2101,2101,2101,2101,2101,2101,2101,2101,2101,2101,2101,2101,2101,2101,2101,2101,2101,2101,2101,2101,2101,2101,2101,2101,2101,2101,2101,2101,2101,2101,2101,2101,2088,2088,2088,2088,2088,2088,2088,2101,2088,2088,2088,2088,2088,2088,2088,2088,2088,2088,2088,2088,2088,2088,2088,2088,2088,2088,2088,2088,2088,2088,2088,2088,2088,2088,2088,2088,2088,2088,2088,2088,2088,2088,2088,2088,2088,2088,2088,2088,2088,2088,2088,2088,2088,2088,2088,2088,2088,2076,2076,2076,2076,2076,2076,2076,2076,2076,2076,2076,2076,2076,2076,2076,2076,2088,2088,2088,2088,2088,2088,2088,2088,2088,2088,2088,2088,2088,2088,2088,2088,2088,2088,2088,2088,2088,2088,2088,2088,2088,2088,2088,2088,2088,2088,2088,2088,2088,2088,2088,2088,2088,2088,2088,2088,2088,2088,2088,2088,2088,2088,2088,2088,2088,2088,2088,2088,2088,2088,2088,2088,2088,2088,2088,2088,2088,2088,2088,2088,2101,2101,2101,2101,2101,2101,2101,2101,2101,2101,2101,2088,2088,2088,2088,2101,2101,2101,2101,2101,2101,2101,2101,2101,2101,2101,2101,2101,2101,2101,2101,2101,2101,2101,2114,2114,2114,2114,2114,2114,2114,2114,2101,2101,2114,2114,2114,2114,2114,2114,2114,2127,2127,2127,2127,2127,2127,2127,2127,2127,2127,2127,2127,2127,2127,2127,2127,2127,2127,2127,2127,2127,2127,2127,2127,2127,2127,2127,2114,2114,2114,2127,2114,2114,2114,2114,2114,2114,2127,2127,2140,2140,2140,2140,2140,2140,2127,2127,2140,2140,2140,2140,2140,2140,2140,2140,2140,2140,2153,2153,2153,2140,2140,2140,2140,2140,2140,2140,2153,2153,2153,2153,2140,2140,2140,2140,2140,2153,2153,2153,2153,2153,2153,2153,2153,2153,2153,2153,2153,2153,2153,2153,2153,2153,2153,2153,2153,2153,2153,2153,2153,2153,2153,2153,2153,2153,2153,2153,2153,2153,2153,2153,2153,2153,2153,2153,2153,2167,2167,2153,2153,2153,2153,2153,2153,2153,2153,2153,2153,2153,2153,2153,2153,2153,2153,2167,2167,2167,2167,2167,2153,2153,2167,2167,2153,2153,2167,2167,2167,2167,2167,2167,2167,2167,2167,2153,2153,2153,2153,2153,2153,2153,2153,2153,2153,2153,2153,2153,2153,2167,2153,2153,2153,2153,2153,2153,2153,2153,2167,2167,2167,2167,2167,2167,2167,2167,2167,2167,2167,2167,2167,2167,2167,2167,2167,2167,2167,2167,2167,2167,2167,2167,2167,2167,2167,2167,2167,2167,2167,2167,2167,2167,2167,2167,2181,2181,2181,2167,2167,2167,2167,2167,2167,2167,2167,2167,2181,2181,2181,2181,2181,2181,2181,2181,2181,2181,2181,2181,2181,2181,2194,2194,2194,2208,2194,2194,2208,2208,2208,2208,2181,2181,2181,2194,2181,2181,2181,2181,2194,2194,2181,2181,2181,2181,2181,2194,2194,2181,2181,2181,2194,2194,2194,2194,2194,2194,2194,2181,2181,2181,2181,2181,2181,2181,2181,2181,2181,2167,2167,2167,2167,2167,2153,2153,2167,2153,2153,2153,2153,2153,0,0,0,0,0,0
0,0,0,0,0,0,0,0,0,0,0,0,0,0,0,0,0,0,0,0,0,0,0,0,0,0,0,0,0,0,0,0,0,0,0,0,0,0,0,0,0,0,0,1947,1947,1947,1947,1947,1947,1936,1936,1936,1947,1936,1936,1936,1936,1936,1936,1936,1947,1947,1958,1958,1969,1958,1958,1958,1969,1958,1958,1958,1958,1958,1958,1958,1958,1958,1958,1969,1980,2003,2027,2076,2076,2076,2076,2076,2076,2076,2088,2088,2088,2088,2088,2088,2088,2088,2088,2088,2088,2088,2088,2088,2101,2101,2101,2114,2114,2114,2127,2114,2114,2114,2101,2101,2101,2101,2101,2101,2101,2114,2114,2101,2101,2101,2101,2101,2101,2101,2101,2101,2101,2101,2114,2114,2101,2101,2101,2101,2101,2101,2101,2101,2101,2101,2101,2101,2101,2101,2101,2101,2101,2101,2101,2101,2101,2101,2088,2088,2101,2088,2088,2101,2101,2101,2101,2101,2101,2101,2101,2101,2101,2101,2101,2088,2088,2101,2088,2088,2088,2088,2088,2088,2088,2088,2088,2088,2088,2088,2088,2088,2088,2088,2088,2101,2088,2088,2088,2088,2088,2088,2088,2088,2088,2088,2088,2088,2088,2088,2076,2076,2076,2076,2076,2076,2076,2076,2076,2088,2088,2088,2088,2088,2088,2088,2088,2088,2088,2088,2088,2088,2088,2088,2088,2088,2088,2088,2088,2088,2088,2088,2088,2088,2088,2088,2088,2088,2088,2088,2088,2088,2088,2088,2088,2088,2088,2088,2088,2088,2088,2088,2088,2101,2101,2101,2101,2101,2101,2101,2101,2101,2101,2101,2101,2101,2101,2101,2101,2101,2101,2101,2101,2101,2101,2101,2101,2101,2101,2101,2101,2101,2101,2101,2101,2101,2101,2101,2101,2101,2101,2101,2101,2101,2101,2101,2101,2114,2101,2101,2114,2101,2101,2101,2101,2101,2114,2114,2114,2114,2114,2114,2114,2114,2114,2114,2114,2114,2114,2114,2114,2114,2114,2114,2114,2127,2127,2127,2127,2127,2140,2140,2140,2127,2127,2127,2127,2127,2127,2127,2127,2127,2127,2127,2127,2127,2140,2127,2127,2127,2127,2127,2127,2127,2127,2127,2127,2127,2127,2127,2127,2127,2140,2140,2140,2153,2153,2153,2153,2140,2140,2140,2140,2140,2140,2140,2140,2140,2140,2140,2153,2153,2153,2153,2153,2153,2153,2153,2153,2153,2153,2153,2153,2153,2153,2153,2153,2153,2153,2153,2153,2153,2153,2153,2153,2153,2153,2153,2153,2153,2153,2153,2153,2153,2153,2153,2153,2153,2153,2153,2153,2153,2153,2153,2153,2153,2153,2153,2167,2153,2153,2167,2153,2153,2167,2153,2153,2153,2153,2167,2167,2167,2167,2167,2167,2167,2167,2153,2153,2153,2153,2153,2167,2167,2167,2167,2167,2167,2167,2167,2167,2167,2167,2167,2167,2167,2167,2167,2167,2167,2167,2167,2167,2167,2167,2167,2167,2167,2167,2167,2153,2153,2153,2153,2153,2153,2167,2167,2167,2167,2167,2167,2167,2167,2167,2153,2153,2153,2153,2167,2167,2167,2167,2167,2167,2181,2167,2167,2167,2167,2167,2167,2167,2167,2167,2181,2181,2167,2167,2181,2181,2167,2167,2167,2167,2167,2167,2167,2167,2181,2181,2181,2181,2181,2181,2181,2181,2181,2181,2181,2181,2167,2167,2167,2167,2167,2167,2167,2181,2181,2181,2181,2181,2181,2194,2194,2194,2194,2194,2194,2194,2194,2194,2194,2194,2208,2208,2208,2208,2208,2208,2208,2208,2208,2194,2194,2194,2194,2181,2181,2181,2194,2194,2194,2194,2181,2181,2194,2194,2194,2194,2194,2194,2194,2194,2208,2208,2208,2208,2208,2194,2194,2181,2181,2194,2181,2181,2194,2194,2194,2194,2194,2181,2181,2181,2167,2167,2167,2167,2167,2153,2153,2153,2153,0,0,0,0,0,0
0,0,0,0,0,0,0,0,0,0,0,0,0,0,0,0,0,0,0,0,0,0,0,0,0,0,0,0,0,0,0,0,0,0,0,0,0,0,0,0,0,0,0,1947,1947,1947,1947,1947,1947,1936,1936,1936,1947,1947,1936,1936,1936,1936,1947,1947,1947,1947,1958,1958,1969,1958,1958,1958,1969,1958,1958,1969,1958,1958,1958,1958,1958,1958,1958,1969,1980,1992,2003,2051,2051,2051,2063,2063,2063,2076,2076,2088,2088,2101,2101,2101,2101,2101,2101,2101,2101,2101,2101,2101,2101,2114,2114,2114,2114,2127,2127,2127,2114,2114,2114,2114,2114,2114,2114,2114,2114,2114,2114,2114,2114,2114,2114,2101,2101,2114,2114,2114,2114,2114,2114,2114,2114,2114,2114,2114,2114,2114,2114,2114,2114,2114,2114,2101,2101,2101,2101,2101,2101,2101,2101,2101,2101,2101,2101,2101,2114,2101,2101,2101,2101,2101,2101,2101,2101,2101,2101,2101,2101,2101,2101,2101,2101,2101,2101,2101,2101,2101,2101,2101,2101,2101,2101,2101,2101,2101,2101,2101,2101,2101,2101,2101,2101,2101,2101,2101,2101,2101,2101,2101,2101,2101,2101,2101,2101,2088,2088,2088,2088,2088,2088,2088,2088,2088,2088,2088,2088,2088,2088,2088,2088,2088,2088,2101,2101,2101,2101,2101,2101,2101,2101,2088,2088,2101,2101,2101,2101,2101,2101,2101,2101,2101,2101,2101,2101,2101,2101,2101,2101,2101,2101,2101,2101,2101,2101,2101,2101,2101,2101,2101,2101,2101,2101,2101,2101,2101,2101,2101,2101,2101,2101,2101,2101,2101,2101,2101,2114,2114,2114,2114,2114,2114,2114,2114,2114,2114,2114,2114,2114,2101,2101,2101,2101,2101,2101,2101,2101,2114,2114,2114,2114,2114,2114,2114,2114,2114,2114,2114,2114,2114,2114,2114,2114,2114,2127,2127,2114,2114,2114,2127,2114,2114,2114,2114,2127,2127,2127,2127,2127,2127,2127,2140,2140,2140,2140,2140,2140,2140,2140,2140,2140,2140,2140,2140,2127,2127,2140,2127,2127,2140,2140,2140,2140,2140,2140,2127,2127,2127,2127,2127,2127,2127,2140,2140,2140,2140,2140,2140,2140,2140,2153,2153,2153,2153,2153,2153,2153,2153,2153,2153,2153,2153,2153,2153,2153,2153,2153,2153,2153,2167,2167,2167,2167,2167,2153,2153,2153,2153,2153,2153,2153,2153,2153,2153,2153,2153,2153,2153,2153,2167,2167,2167,2167,2167,2167,2153,2153,2167,2167,2167,2153,2153,2153,2167,2153,2153,2153,2153,2167,2167,2167,2167,2167,2167,2167,2167,2167,2167,2167,2167,2167,2167,2167,2167,2167,2167,2167,2167,2167,2167,2167,2167,2167,2167,2167,2167,2167,2167,2167,2167,2167,2167,2167,2167,2181,2167,2167,2167,2167,2167,2167,2167,2167,2167,2167,2167,2167,2167,2167,2167,2167,2167,2167,2167,2167,2167,2167,2167,2167,2167,2167,2167,2167,2167,2167,2167,2167,2167,2167,2167,2167,2167,2167,2167,2167,2167,2167,2167,2167,2167,2181,2181,2181,2167,2167,2167,2167,2167,2167,2167,2167,2167,2181,2167,2167,2181,2181,2181,2181,2181,2181,2167,2167,2167,2181,2181,2181,2181,2181,2181,2181,2181,2181,2181,2181,2181,2181,2167,2167,2181,2181,2181,2181,2181,2181,2181,2181,2194,2208,2208,2194,2194,2194,2194,2194,2194,2194,2194,2194,2194,2208,2208,2208,2208,2208,2208,2208,2208,2208,2208,2194,2194,2194,2194,2194,2194,2194,2194,2208,2208,2208,2194,2194,2194,2208,2208,2208,2208,2208,2208,2223,2223,2223,2223,2208,2208,2208,2194,2194,2194,2194,2194,2194,2208,2208,2208,2194,2194,2194,2181,2181,2167,2167,2167,2167,2167,2167,2153,2153,2153,0,0,0,0,0,0
0,0,0,0,0,0,0,0,0,0,0,0,0,0,0,0,0,0,0,0,0,0,0,0,0,0,0,0,0,0,0,0,0,0,0,0,0,0,0,0,0,0,0,1947,1947,1947,1947,1947,1947,1947,1947,1947,1947,1947,1947,1947,1947,1947,1947,1958,1958,1958,1958,1958,1969,1969,1958,1958,1969,1958,1958,1969,1958,1958,1958,1958,1958,1958,1958,1958,1969,1992,2003,2003,2015,2039,2051,2051,2051,2063,2076,2088,2088,2101,2101,2101,2101,2101,2101,2101,2114,2114,2114,2114,2114,2114,2114,2114,2114,2127,2127,2127,2114,2114,2127,2114,2114,2114,2114,2114,2114,2114,2114,2114,2127,2127,2114,2114,2114,2114,2114,2114,2114,2114,2114,2127,2127,2114,2114,2127,2127,2127,2127,2114,2114,2127,2114,2114,2114,2114,2114,2114,2101,2101,2101,2101,2101,2101,2101,2101,2114,2101,2101,2101,2101,2101,2101,2114,2101,2101,2101,2101,2114,2101,2101,2101,2101,2114,2114,2101,2101,2101,2101,2101,2101,2101,2101,2101,2101,2101,2101,2101,2101,2101,2101,2101,2101,2101,2101,2101,2101,2101,2101,2101,2101,2101,2101,2101,2101,2101,2101,2101,2101,2101,2088,2088,2088,2101,2101,2101,2101,2101,2101,2101,2101,2101,2101,2101,2101,2101,2101,2101,2101,2101,2101,2101,2101,2101,2101,2101,2101,2101,2101,2101,2101,2101,2101,2101,2101,2101,2101,2101,2114,2114,2114,2101,2101,2101,2101,2101,2101,2101,2101,2114,2114,2114,2114,2101,2101,2114,2114,2114,2114,2101,2101,2101,2101,2101,2114,2114,2114,2114,2127,2114,2114,2114,2114,2114,2114,2114,2114,2114,2114,2114,2114,2114,2114,2114,2114,2114,2114,2114,2114,2114,2114,2114,2114,2127,2127,2127,2127,2114,2114,2114,2114,2114,2127,2127,2127,2127,2127,2127,2127,2127,2127,2127,2127,2127,2127,2127,2127,2127,2127,2127,2127,2153,2153,2153,2153,2153,2153,2153,2153,2153,2153,2153,2153,2140,2140,2140,2140,2140,2140,2140,2140,2140,2153,2140,2140,2140,2140,2140,2140,2140,2140,2140,2140,2140,2140,2140,2140,2153,2153,2153,2153,2153,2153,2153,2153,2153,2153,2153,2153,2153,2153,2153,2167,2167,2167,2167,2167,2167,2167,2167,2167,2167,2167,2167,2167,2153,2153,2153,2153,2153,2153,2153,2153,2153,2153,2153,2153,2167,2167,2167,2167,2167,2167,2167,2167,2167,2167,2167,2167,2167,2167,2167,2167,2167,2153,2167,2167,2167,2167,2167,2167,2167,2167,2167,2167,2167,2167,2167,2167,2167,2181,2167,2167,2167,2167,2167,2167,2181,2181,2181,2181,2181,2181,2167,2181,2181,2181,2181,2181,2181,2181,2181,2181,2181,2181,2181,2181,2181,2181,2181,2167,2167,2167,2167,2167,2167,2167,2181,2181,2181,2181,2167,2167,2181,2181,2181,2167,2167,2167,2167,2167,2167,2167,2167,2167,2167,2167,2167,2167,2167,2167,2167,2167,2167,2167,2181,2181,2181,2181,2181,2194,2194,2181,2181,2181,2181,2167,2167,2167,2167,2167,2167,2181,2181,2181,2181,2181,2181,2181,2181,2181,2181,2181,2181,2181,2181,2181,2181,2181,2181,2181,2194,2194,2194,2194,2194,2181,2181,2181,2194,2194,2194,2194,2194,2194,2194,2194,2208,2208,2208,2208,2208,2208,2208,2208,2208,2194,2194,2208,2208,2208,2208,2208,2208,2208,2208,2208,2208,2208,2208,2194,2194,2208,2208,2194,2194,2194,2208,2208,2208,2208,2194,2194,2208,2208,2208,2208,2208,2208,2208,2223,2223,2223,2223,2208,2208,2208,2208,2208,2208,2208,2208,2208,2208,2208,2223,2208,2194,2194,2194,2181,2181,2167,2167,2167,2167,2167,2167,2167,2167,0,0,0,0,0,0
0,0,0,0,0,0,0,0,0,0,0,0,0,0,0,0,0,0,0,0,0,0,0,0,0,0,0,0,0,0,0,0,0,0,0,0,0,0,0,0,0,0,0,1947,1947,1947,1947,1947,1947,1947,1947,1947,1947,1947,1947,1947,1947,1947,1958,1958,1958,1969,1969,1969,1969,1958,1958,1958,1969,1969,1969,1969,1969,1969,1969,1969,1969,1958,1958,1958,1969,1992,1992,1992,2003,2003,2003,2003,2003,2051,2063,2063,2101,2101,2101,2114,2114,2114,2114,2114,2114,2114,2114,2114,2114,2114,2114,2127,2127,2127,2140,2127,2127,2127,2127,2127,2127,2127,2127,2127,2127,2127,2127,2127,2127,2127,2114,2114,2114,2114,2114,2114,2114,2114,2114,2127,2127,2127,2127,2127,2127,2127,2127,2127,2127,2127,2127,2127,2127,2127,2114,2114,2114,2114,2127,2127,2127,2127,2127,2127,2114,2114,2114,2114,2114,2114,2114,2127,2114,2114,2114,2114,2114,2114,2114,2114,2114,2114,2114,2114,2114,2101,2101,2101,2101,2101,2101,2101,2114,2114,2114,2114,2114,2114,2114,2101,2101,2101,2101,2114,2114,2114,2114,2114,2114,2114,2114,2114,2101,2101,2101,2101,2101,2101,2101,2101,2101,2101,2101,2101,2101,2101,2101,2101,2101,2101,2101,2101,2101,2101,2101,2101,2101,2101,2101,2101,2101,2101,2101,2114,2101,2101,2114,2114,2101,2101,2101,2101,2114,2114,2114,2114,2114,2114,2114,2114,2114,2114,2114,2114,2114,2114,2114,2114,2114,2114,2114,2114,2114,2114,2114,2114,2114,2101,2101,2101,2114,2114,2114,2114,2127,2127,2127,2127,2127,2127,2114,2114,2114,2127,2127,2127,2127,2127,2127,2114,2114,2114,2114,2114,2114,2114,2114,2114,2127,2127,2127,2127,2127,2127,2127,2127,2127,2127,2127,2127,2127,2127,2140,2127,2127,2127,2127,2127,2127,2127,2127,2127,2140,2127,2127,2140,2140,2140,2140,2153,2153,2153,2153,2153,2153,2153,2153,2153,2153,2153,2153,2153,2153,2153,2153,2153,2153,2153,2153,2153,2153,2153,2153,2140,2140,2140,2140,2140,2140,2140,2153,2153,2153,2153,2153,2153,2153,2153,2153,2167,2167,2167,2167,2153,2167,2167,2167,2167,2167,2167,2167,2167,2167,2167,2167,2167,2167,2167,2167,2167,2167,2167,2167,2167,2167,2167,2167,2167,2167,2167,2167,2167,2167,2167,2167,2167,2167,2167,2167,2167,2167,2167,2167,2167,2167,2167,2167,2167,2167,2167,2167,2167,2167,2167,2167,2167,2167,2167,2167,2167,2167,2167,2167,2167,2167,2181,2181,2181,2181,2181,2181,2167,2167,2167,2167,2181,2181,2181,2181,2194,2194,2181,2181,2181,2181,2181,2194,2194,2194,2194,2194,2194,2194,2194,2194,2194,2181,2181,2181,2181,2181,2181,2181,2181,2181,2194,2194,2194,2194,2181,2181,2181,2181,2181,2181,2181,2181,2181,2181,2181,2167,2167,2167,2167,2167,2167,2167,2167,2181,2181,2181,2181,2181,2194,2194,2194,2194,2194,2194,2208,2194,2194,2194,2194,2181,2181,2181,2181,2181,2181,2181,2181,2181,2194,2194,2194,2194,2194,2194,2181,2181,2181,2181,2194,2194,2194,2194,2194,2194,2194,2194,2194,2194,2194,2194,2194,2194,2194,2194,2194,2208,2208,2194,2194,2194,2208,2208,2208,2208,2208,2208,2208,2208,2208,2208,2208,2208,2208,2208,2223,2223,2223,2223,2208,2208,2208,2208,2208,2208,2208,2208,2208,2208,2208,2208,2208,2208,2208,2223,2208,2208,2208,2223,2223,2223,2208,2208,2223,2223,2223,2223,2223,2223,2223,2208,2208,2208,2223,2223,2223,2223,2223,2223,2223,2208,2208,2194,2194,2194,2181,2181,2181,2181,2167,2167,2181,2181,2181,0,0,0,0,0,0
0,0,0,0,0,0,0,0,0,0,0,0,0,0,0,0,0,0,0,0,0,0,0,0,0,0,0,0,0,0,0,0,0,0,0,0,0,0,0,0,0,0,0,1958,1947,1947,1947,1947,1947,1947,1947,1947,1947,1947,1947,1947,1947,1947,1958,1958,1969,1969,1969,1969,1969,1958,1958,1958,1969,1969,1980,1980,1980,1980,1980,1980,1969,1969,1958,1958,1969,1992,1992,1992,2003,2003,2003,2003,2003,2003,2003,2063,2101,2101,2101,2114,2114,2114,2114,2127,2127,2127,2127,2127,2127,2127,2127,2127,2127,2127,2140,2140,2127,2127,2127,2127,2127,2127,2127,2140,2140,2140,2140,2140,2127,2127,2127,2127,2127,2127,2127,2140,2127,2127,2127,2127,2127,2127,2127,2127,2127,2127,2127,2127,2127,2140,2127,2127,2127,2140,2140,2127,2127,2127,2140,2127,2127,2127,2127,2127,2127,2127,2127,2114,2114,2127,2127,2127,2127,2114,2114,2114,2114,2114,2114,2114,2114,2114,2114,2114,2114,2114,2114,2114,2101,2101,2101,2114,2114,2114,2114,2114,2114,2127,2127,2114,2114,2114,2114,2114,2114,2127,2114,2114,2127,2114,2114,2114,2114,2114,2114,2114,2114,2114,2114,2114,2114,2114,2114,2114,2114,2114,2114,2114,2114,2114,2114,2101,2101,2101,2101,2101,2101,2101,2101,2101,2101,2114,2114,2114,2114,2114,2114,2127,2114,2114,2114,2114,2114,2114,2114,2114,2127,2127,2127,2127,2127,2127,2127,2127,2127,2114,2114,2127,2127,2127,2127,2114,2114,2114,2114,2114,2114,2114,2114,2114,2114,2114,2127,2127,2127,2127,2127,2127,2127,2127,2127,2127,2127,2127,2127,2127,2127,2127,2127,2127,2127,2127,2127,2127,2127,2127,2127,2127,2127,2127,2127,2127,2127,2127,2127,2127,2127,2127,2127,2127,2127,2140,2140,2127,2127,2127,2127,2140,2127,2127,2140,2140,2140,2140,2140,2140,2140,2140,2140,2153,2153,2153,2153,2153,2153,2153,2153,2153,2153,2167,2153,2153,2153,2153,2153,2153,2153,2153,2153,2153,2153,2153,2153,2153,2153,2153,2153,2153,2153,2153,2153,2153,2153,2153,2153,2153,2153,2167,2167,2167,2167,2167,2167,2167,2167,2167,2167,2167,2167,2167,2167,2167,2167,2167,2167,2167,2167,2167,2167,2167,2167,2167,2167,2167,2167,2167,2167,2167,2167,2167,2167,2167,2167,2167,2167,2167,2167,2167,2167,2167,2167,2167,2167,2167,2167,2167,2167,2167,2167,2167,2167,2167,2167,2167,2167,2181,2181,2181,2181,2181,2167,2167,2167,2167,2167,2181,2181,2181,2194,2181,2181,2181,2181,2181,2181,2181,2181,2181,2181,2194,2194,2194,2194,2194,2194,2194,2194,2194,2194,2194,2194,2194,2194,2194,2194,2194,2194,2194,2194,2194,2194,2194,2194,2194,2194,2194,2208,2208,2208,2194,2194,2194,2194,2181,2181,2181,2181,2194,2181,2181,2181,2181,2181,2181,2181,2181,2181,2181,2181,2194,2208,2208,2208,2208,2208,2194,2194,2194,2208,2208,2208,2194,2194,2194,2194,2181,2181,2181,2181,2181,2181,2194,2194,2194,2208,2208,2208,2208,2194,2194,2181,2181,2194,2194,2194,2194,2194,2194,2194,2208,2208,2208,2208,2194,2194,2208,2208,2208,2208,2208,2208,2208,2208,2208,2208,2208,2208,2208,2208,2208,2208,2208,2208,2208,2208,2208,2208,2223,2223,2223,2223,2223,2223,2223,2223,2223,2223,2208,2208,2208,2208,2208,2208,2208,2208,2208,2223,2223,2223,2208,2208,2223,2223,2223,2223,2223,2223,2223,2223,2223,2223,2223,2223,2223,2208,2208,2223,2223,2223,2223,2223,2223,2223,2223,2208,2208,2208,2208,2194,2194,2181,2181,2181,2181,2181,2181,2181,2181,0,0,0,0,0,0
0,0,0,0,0,0,0,0,0,0,0,0,0,0,0,0,0,0,0,0,0,0,0,0,0,0,0,0,0,0,0,0,0,0,0,0,0,0,0,0,0,0,0,1958,1958,1958,1958,1958,1958,1958,1958,1958,1958,1958,1958,1958,1958,1958,1958,1958,1969,1969,1969,1969,1969,1969,1969,1969,1969,1969,1980,1992,1980,1980,1980,1980,1980,1969,1969,1969,1980,1992,1992,2003,2003,2003,2003,2003,2003,2003,2003,2015,2101,2114,2114,2127,2127,2127,2127,2127,2127,2127,2127,2127,2127,2127,2127,2127,2127,2140,2140,2140,2127,2127,2127,2140,2140,2140,2140,2140,2140,2153,2153,2140,2140,2140,2140,2140,2140,2140,2140,2140,2140,2140,2140,2140,2140,2140,2127,2127,2140,2140,2140,2140,2140,2140,2140,2140,2140,2140,2140,2140,2140,2140,2140,2140,2140,2127,2127,2127,2127,2127,2127,2127,2127,2127,2127,2127,2127,2127,2114,2114,2127,2114,2114,2114,2114,2127,2127,2127,2127,2114,2114,2114,2114,2114,2114,2114,2114,2127,2127,2127,2127,2127,2127,2127,2127,2127,2127,2127,2127,2127,2114,2114,2127,2114,2114,2114,2114,2114,2114,2114,2114,2127,2114,2114,2114,2114,2127,2127,2114,2114,2114,2114,2114,2114,2114,2114,2114,2114,2114,2114,2101,2101,2114,2114,2114,2114,2127,2127,2127,2127,2127,2127,2127,2127,2127,2127,2127,2127,2127,2127,2127,2127,2127,2127,2127,2127,2127,2127,2127,2114,2114,2127,2127,2127,2127,2127,2127,2127,2127,2127,2127,2127,2127,2127,2127,2127,2127,2127,2140,2140,2140,2140,2140,2127,2127,2127,2127,2127,2127,2127,2127,2127,2127,2127,2127,2127,2127,2127,2127,2140,2127,2127,2127,2127,2127,2140,2140,2140,2140,2140,2140,2140,2127,2127,2140,2140,2140,2140,2127,2127,2140,2140,2140,2140,2140,2140,2140,2140,2140,2140,2153,2153,2153,2167,2167,2167,2167,2167,2167,2167,2167,2167,2167,2167,2167,2167,2167,2167,2167,2167,2167,2167,2153,2153,2167,2153,2153,2153,2153,2153,2153,2153,2153,2153,2153,2153,2153,2153,2153,2167,2167,2167,2167,2167,2167,2167,2167,2167,2167,2167,2181,2181,2181,2181,2167,2167,2167,2167,2167,2167,2167,2167,2181,2181,2181,2181,2181,2167,2167,2167,2167,2167,2167,2167,2167,2167,2167,2167,2167,2167,2167,2181,2181,2167,2167,2167,2167,2167,2167,2167,2167,2167,2167,2167,2167,2181,2167,2181,2181,2181,2181,2194,2194,2181,2181,2181,2181,2181,2181,2181,2181,2181,2194,2194,2181,2181,2181,2181,2181,2181,2181,2194,2194,2194,2194,2208,2194,2194,2194,2208,2208,2208,2208,2208,2208,2208,2208,2208,2208,2208,2208,2208,2194,2194,2194,2194,2194,2194,2208,2208,2208,2208,2208,2194,2194,2194,2194,2181,2181,2181,2181,2194,2194,2194,2194,2194,2194,2194,2181,2181,2181,2194,2208,2208,2208,2208,2208,2208,2208,2208,2208,2208,2208,2208,2208,2208,2208,2208,2194,2181,2181,2181,2194,2194,2194,2194,2194,2208,2208,2208,2208,2208,2208,2208,2194,2194,2194,2208,2208,2208,2208,2208,2208,2208,2208,2208,2208,2208,2208,2208,2208,2208,2208,2208,2208,2208,2208,2208,2208,2208,2223,2223,2223,2223,2223,2223,2208,2208,2223,2223,2223,2223,2223,2237,2237,2237,2237,2223,2223,2223,2223,2223,2223,2223,2208,2208,2223,2208,2208,2223,2223,2223,2223,2223,2223,2223,2223,2223,2223,2223,2223,2223,2237,2237,2237,2237,2223,2223,2223,2223,2223,2223,2223,2223,2223,2223,2223,2223,2208,2208,2208,2208,2208,2194,2194,2194,2194,2194,2194,2194,2194,2194,0,0,0,0,0,0
0,0,0,0,0,0,0,0,0,0,0,0,0,0,0,0,0,0,0,0,0,0,0,0,0,0,0,0,0,0,0,0,0,0,0,0,0,0,0,0,0,0,0,1958,1958,1958,1958,1958,1958,1958,1958,1958,1958,1958,1958,1958,1958,1958,1969,1980,1980,1980,1969,1969,1969,1969,1969,1969,1969,1980,1980,1992,1980,1980,1980,1980,1980,1969,1969,1969,1992,1992,2003,2003,2003,2003,2003,2003,2003,2003,2003,2015,2101,2101,2101,2127,2127,2127,2127,2140,2140,2140,2140,2140,2140,2140,2127,2127,2140,2140,2140,2140,2140,2140,2140,2140,2140,2140,2140,2153,2153,2153,2153,2153,2153,2153,2140,2140,2140,2140,2140,2140,2140,2140,2140,2140,2140,2140,2140,2140,2140,2140,2140,2140,2140,2140,2140,2140,2140,2140,2140,2140,2140,2140,2140,2140,2140,2140,2140,2140,2140,2140,2140,2127,2127,2140,2140,2140,2127,2127,2127,2127,2127,2114,2114,2127,2127,2127,2127,2127,2127,2127,2127,2127,2127,2114,2114,2114,2114,2127,2127,2127,2127,2127,2140,2127,2127,2127,2127,2127,2127,2127,2127,2127,2127,2127,2127,2127,2127,2127,2127,2127,2127,2127,2127,2127,2127,2127,2127,2127,2127,2127,2127,2127,2127,2127,2127,2127,2127,2114,2114,2114,2114,2114,2114,2114,2114,2127,2127,2127,2127,2127,2127,2140,2127,2127,2127,2140,2140,2127,2127,2127,2140,2127,2127,2127,2127,2127,2127,2127,2127,2127,2127,2127,2127,2127,2140,2127,2127,2127,2127,2127,2127,2127,2127,2127,2127,2127,2127,2127,2140,2140,2140,2140,2140,2140,2127,2127,2140,2140,2140,2140,2140,2140,2140,2140,2140,2140,2140,2140,2140,2140,2140,2140,2140,2140,2140,2140,2140,2140,2140,2140,2140,2140,2127,2127,2140,2140,2140,2140,2140,2140,2140,2140,2140,2140,2140,2140,2140,2140,2140,2153,2153,2153,2153,2167,2167,2167,2167,2167,2167,2167,2167,2167,2167,2167,2167,2167,2167,2181,2181,2181,2167,2167,2167,2167,2167,2167,2167,2167,2167,2167,2167,2167,2167,2167,2167,2167,2167,2167,2167,2167,2167,2167,2181,2181,2181,2181,2181,2181,2181,2181,2181,2181,2181,2181,2181,2167,2167,2167,2167,2167,2167,2167,2181,2181,2181,2181,2181,2181,2181,2181,2181,2181,2181,2167,2167,2181,2181,2181,2181,2181,2181,2181,2181,2181,2181,2167,2167,2167,2167,2181,2181,2181,2181,2181,2181,2181,2181,2181,2181,2194,2194,2194,2194,2194,2194,2194,2194,2194,2194,2194,2194,2194,2194,2194,2194,2194,2181,2181,2181,2194,2194,2208,2208,2208,2208,2208,2208,2208,2208,2208,2208,2208,2208,2208,2208,2208,2208,2208,2208,2208,2208,2208,2208,2208,2208,2208,2208,2208,2208,2208,2208,2208,2208,2194,2194,2194,2194,2194,2194,2194,2194,2194,2194,2194,2194,2194,2194,2194,2208,2208,2208,2208,2208,2208,2223,2223,2208,2208,2208,2208,2208,2208,2208,2208,2208,2208,2208,2208,2208,2194,2181,2181,2194,2194,2194,2194,2208,2208,2208,2208,2208,2208,2208,2208,2208,2208,2208,2208,2208,2208,2208,2208,2208,2208,2208,2223,2223,2223,2223,2223,2223,2208,2208,2208,2208,2208,2208,2208,2223,2223,2223,2223,2223,2223,2223,2223,2223,2223,2223,2223,2223,2237,2237,2237,2237,2252,2252,2237,2223,2223,2223,2223,2223,2223,2223,2223,2223,2223,2223,2223,2223,2237,2237,2223,2223,2223,2223,2223,2223,2223,2237,2237,2237,2237,2237,2252,2252,2237,2223,2223,2237,2237,2223,2223,2223,2223,2223,2223,2223,2208,2208,2208,2208,2208,2208,2208,2208,2208,2208,2208,2208,2208,0,0,0,0,0,0
0,0,0,0,0,0,0,0,0,0,0,0,0,0,0,0,0,0,0,0,0,0,0,0,0,0,0,0,0,0,0,0,0,0,0,0,0,0,0,0,0,0,0,1958,1958,1958,1958,1958,1958,1958,1958,1958,1958,1958,1958,1958,1958,1969,1969,1980,1980,1980,1980,1980,1992,1969,1969,1969,1969,1980,1992,1980,1980,1980,1980,1980,1980,1980,1980,1980,1980,2003,2003,2003,2003,2003,2003,2003,2003,2003,2003,2015,2015,2088,2088,2101,2114,2127,2127,2127,2140,2140,2140,2140,2140,2140,2140,2140,2140,2140,2140,2140,2140,2140,2140,2140,2140,2153,2153,2153,2153,2153,2167,2167,2153,2153,2153,2153,2153,2140,2140,2140,2140,2140,2140,2140,2140,2140,2140,2140,2140,2140,2153,2153,2153,2153,2153,2140,2140,2140,2140,2140,2140,2140,2140,2140,2140,2140,2140,2140,2140,2140,2140,2140,2140,2140,2140,2140,2140,2140,2140,2140,2140,2127,2127,2140,2140,2140,2140,2140,2140,2140,2127,2127,2127,2127,2127,2127,2127,2140,2140,2140,2140,2140,2140,2140,2140,2140,2140,2140,2127,2127,2127,2127,2127,2127,2127,2127,2127,2127,2127,2127,2127,2140,2140,2127,2127,2127,2140,2140,2127,2127,2140,2140,2140,2127,2127,2127,2127,2127,2127,2127,2127,2127,2127,2127,2127,2127,2140,2140,2140,2140,2140,2140,2140,2140,2140,2140,2140,2140,2127,2127,2140,2127,2127,2127,2127,2127,2127,2127,2127,2127,2127,2127,2127,2140,2140,2140,2140,2140,2140,2140,2127,2127,2127,2127,2127,2140,2140,2140,2140,2140,2140,2140,2140,2140,2127,2127,2140,2140,2140,2140,2140,2140,2140,2140,2140,2140,2140,2140,2140,2140,2140,2140,2140,2140,2140,2140,2140,2140,2140,2140,2140,2140,2140,2140,2140,2140,2140,2140,2140,2140,2140,2140,2153,2153,2153,2153,2153,2153,2153,2153,2153,2153,2153,2167,2167,2167,2167,2167,2167,2167,2167,2167,2167,2167,2167,2167,2181,2181,2181,2181,2181,2181,2181,2181,2181,2181,2167,2167,2167,2167,2167,2167,2167,2167,2167,2167,2167,2167,2167,2167,2181,2181,2181,2181,2181,2194,2194,2181,2181,2181,2181,2194,2181,2181,2181,2181,2167,2167,2167,2167,2167,2167,2181,2181,2181,2194,2194,2194,2181,2181,2181,2181,2181,2181,2181,2181,2181,2181,2181,2181,2181,2181,2181,2181,2181,2181,2181,2181,2181,2194,2194,2194,2194,2194,2194,2194,2194,2194,2194,2194,2208,2208,2208,2208,2208,2208,2208,2208,2208,2208,2208,2208,2208,2194,2194,2208,2194,2194,2194,2194,2208,2208,2208,2208,2208,2208,2208,2208,2208,2208,2208,2208,2208,2208,2208,2208,2208,2208,2208,2208,2208,2208,2208,2208,2208,2208,2208,2208,2208,2208,2208,2208,2208,2208,2208,2208,2208,2194,2194,2208,2208,2208,2208,2208,2208,2208,2208,2208,2208,2208,2208,2208,2208,2223,2223,2223,2223,2223,2223,2223,2223,2223,2223,2223,2223,2223,2208,2208,2208,2194,2194,2194,2194,2194,2208,2208,2208,2208,2208,2223,2223,2223,2223,2208,2208,2208,2208,2208,2208,2208,2208,2208,2208,2223,2223,2223,2223,2223,2223,2223,2223,2223,2223,2223,2223,2223,2223,2223,2223,2223,2223,2223,2223,2237,2223,2223,2223,2223,2223,2223,2223,2237,2237,2266,2266,2252,2252,2237,2237,2223,2223,2223,2223,2223,2223,2223,2237,2237,2237,2237,2237,2237,2237,2237,2237,2237,2237,2237,2237,2237,2237,2237,2252,2252,2252,2252,2252,2252,2252,2237,2237,2237,2237,2237,2237,2237,2237,2223,2223,2223,2208,2208,2208,2208,2208,2223,2223,2223,2223,2208,2208,2208,0,0,0,0,0,0
0,0,0,0,0,0,0,0,0,0,0,0,0,0,0,0,0,0,0,0,0,0,0,0,0,0,0,0,0,0,0,0,0,0,0,0,0,0,0,0,0,0,0,1958,1958,1958,1958,1958,1958,1958,1958,1958,1958,1958,1969,1969,1969,1969,1969,1980,1980,1992,1992,1992,1992,1992,1992,1992,1992,1992,1992,1992,1992,1992,1980,1980,1992,1992,1992,1992,1992,2003,2003,2003,2003,2003,2003,2003,2003,2003,2003,2015,2015,2015,2088,2101,2101,2114,2127,2127,2140,2140,2140,2140,2140,2140,2140,2140,2140,2140,2140,2140,2153,2153,2153,2153,2153,2153,2167,2167,2167,2167,2167,2181,2153,2153,2153,2153,2153,2153,2140,2140,2140,2140,2140,2140,2140,2140,2153,2153,2153,2153,2153,2153,2153,2153,2153,2153,2153,2140,2140,2140,2140,2140,2140,2140,2140,2140,2140,2140,2140,2140,2140,2140,2140,2140,2140,2140,2140,2140,2140,2140,2140,2140,2140,2140,2153,2140,2140,2140,2140,2140,2140,2140,2140,2140,2140,2140,2140,2140,2140,2140,2140,2140,2140,2140,2140,2140,2140,2140,2140,2140,2127,2127,2127,2127,2127,2127,2127,2140,2140,2140,2140,2140,2140,2140,2140,2140,2140,2140,2140,2140,2140,2140,2140,2140,2140,2140,2140,2127,2127,2127,2127,2127,2127,2127,2140,2140,2140,2140,2140,2140,2140,2140,2140,2140,2140,2140,2140,2140,2140,2140,2140,2140,2140,2127,2127,2127,2127,2127,2140,2140,2140,2140,2140,2140,2140,2140,2140,2140,2140,2140,2140,2140,2140,2140,2140,2140,2140,2140,2140,2140,2140,2140,2140,2140,2140,2140,2140,2140,2140,2140,2140,2140,2140,2140,2140,2153,2140,2140,2140,2140,2140,2140,2140,2140,2140,2140,2140,2140,2140,2140,2140,2140,2140,2140,2153,2153,2153,2153,2153,2153,2153,2153,2153,2153,2153,2153,2153,2153,2153,2153,2153,2153,2167,2181,2181,2181,2181,2181,2181,2181,2181,2181,2181,2181,2181,2181,2181,2181,2194,2194,2181,2181,2181,2181,2181,2181,2181,2181,2181,2181,2181,2181,2181,2181,2181,2181,2181,2181,2181,2181,2194,2194,2194,2194,2194,2194,2194,2194,2194,2194,2194,2194,2194,2194,2194,2181,2181,2181,2167,2167,2167,2181,2194,2194,2194,2194,2194,2194,2194,2194,2194,2194,2194,2181,2181,2194,2194,2194,2194,2194,2194,2194,2194,2194,2194,2194,2194,2194,2194,2194,2194,2194,2194,2194,2194,2194,2194,2194,2194,2208,2208,2208,2208,2223,2223,2208,2208,2208,2208,2208,2208,2208,2208,2208,2208,2208,2208,2208,2208,2208,2208,2208,2208,2208,2223,2208,2208,2223,2223,2223,2223,2223,2223,2208,2208,2208,2208,2208,2208,2208,2208,2208,2208,2208,2208,2208,2223,2223,2223,2223,2223,2208,2208,2208,2208,2208,2208,2208,2208,2208,2223,2223,2223,2223,2223,2223,2223,2223,2223,2223,2223,2223,2223,2223,2223,2223,2223,2223,2223,2223,2223,2223,2223,2223,2223,2223,2223,2208,2208,2208,2208,2208,2208,2208,2208,2208,2208,2223,2223,2223,2223,2223,2223,2223,2223,2223,2223,2223,2223,2223,2223,2223,2223,2223,2237,2237,2237,2237,2223,2223,2223,2223,2223,2223,2223,2223,2223,2223,2237,2237,2237,2237,2237,2237,2237,2223,2223,2223,2223,2237,2237,2252,2252,2252,2252,2252,2252,2252,2237,2237,2237,2237,2237,2237,2237,2237,2252,2252,2252,2237,2237,2237,2237,2237,2237,2237,2237,2237,2237,2237,2252,2252,2252,2252,2252,2266,2266,2266,2252,2252,2252,2252,2252,2252,2237,2237,2237,2223,2223,2223,2223,2223,2223,2223,2223,2223,2223,2237,2237,2223,2223,2223,0,0,0,0,0,0
0,0,0,0,0,0,0,0,0,0,0,0,0,0,0,0,0,0,0,0,0,0,0,0,0,0,0,0,0,0,0,0,0,0,0,0,0,0,0,0,0,0,0,1969,1969,1969,1969,1958,1958,1958,1958,1958,1958,1958,1969,1969,1969,1969,1969,1980,1980,1992,1992,1992,1992,1992,2003,1992,1992,1992,1992,1992,1992,1992,1992,1992,1992,2003,2003,2003,2003,2003,2003,2015,2015,2003,2003,2003,2003,2003,2015,2015,2015,2039,2039,2051,2051,2076,2076,2076,2101,2127,2140,2140,2140,2140,2140,2140,2140,2140,2153,2153,2153,2167,2167,2153,2153,2153,2167,2167,2167,2167,2167,2181,2167,2153,2153,2153,2153,2153,2153,2140,2140,2140,2140,2140,2140,2140,2140,2153,2153,2153,2153,2153,2153,2153,2153,2153,2153,2153,2153,2140,2140,2140,2140,2140,2140,2140,2140,2140,2140,2140,2140,2140,2140,2153,2153,2153,2153,2153,2153,2153,2153,2153,2153,2153,2153,2153,2153,2153,2153,2140,2140,2140,2140,2140,2140,2140,2140,2140,2140,2140,2140,2140,2140,2140,2140,2140,2140,2140,2140,2140,2140,2140,2140,2140,2140,2140,2140,2140,2140,2140,2140,2140,2140,2140,2140,2140,2140,2140,2140,2140,2140,2140,2140,2140,2140,2140,2140,2140,2140,2140,2140,2140,2140,2140,2140,2140,2140,2140,2140,2140,2140,2140,2140,2140,2140,2140,2140,2140,2140,2140,2140,2140,2140,2140,2140,2140,2140,2140,2140,2140,2140,2140,2140,2140,2153,2140,2140,2140,2140,2140,2140,2140,2140,2140,2140,2140,2140,2140,2140,2140,2140,2140,2140,2140,2140,2140,2153,2153,2153,2153,2153,2153,2153,2153,2153,2153,2153,2153,2153,2153,2153,2153,2153,2153,2153,2153,2153,2153,2153,2153,2153,2153,2153,2153,2153,2167,2153,2153,2153,2153,2153,2153,2153,2153,2153,2153,2153,2153,2153,2167,2167,2167,2167,2181,2181,2181,2181,2194,2194,2181,2181,2181,2181,2181,2194,2194,2194,2194,2194,2194,2194,2194,2194,2194,2194,2194,2194,2194,2194,2194,2194,2194,2181,2181,2194,2194,2181,2181,2181,2194,2194,2194,2194,2194,2194,2208,2194,2194,2194,2194,2194,2208,2194,2194,2194,2194,2194,2181,2181,2181,2181,2194,2194,2194,2194,2208,2208,2208,2208,2194,2194,2194,2194,2194,2194,2194,2194,2194,2194,2194,2194,2194,2208,2208,2208,2208,2208,2208,2208,2208,2208,2208,2208,2208,2208,2208,2208,2208,2208,2208,2208,2208,2223,2223,2223,2223,2223,2223,2208,2208,2208,2208,2208,2208,2208,2208,2208,2208,2208,2208,2208,2208,2208,2223,2223,2223,2223,2223,2223,2223,2223,2223,2223,2223,2223,2223,2208,2208,2223,2223,2208,2208,2223,2223,2223,2223,2223,2223,2223,2223,2223,2223,2208,2208,2208,2208,2208,2208,2208,2223,2223,2223,2223,2223,2223,2223,2223,2223,2223,2223,2223,2223,2223,2223,2223,2237,2223,2223,2237,2237,2237,2223,2223,2223,2223,2223,2223,2223,2223,2223,2223,2208,2208,2208,2223,2223,2223,2223,2223,2223,2223,2237,2237,2223,2223,2223,2223,2223,2237,2223,2223,2223,2237,2237,2237,2237,2237,2237,2237,2237,2237,2237,2237,2237,2237,2237,2237,2237,2237,2237,2237,2237,2237,2237,2237,2237,2237,2237,2237,2237,2237,2252,2252,2252,2252,2252,2252,2252,2252,2237,2237,2252,2252,2252,2252,2252,2252,2252,2252,2252,2252,2252,2252,2237,2237,2252,2252,2252,2252,2252,2252,2252,2252,2252,2252,2266,2266,2266,2266,2266,2252,2252,2252,2252,2252,2237,2237,2237,2223,2223,2223,2223,2237,2237,2237,2237,2252,2252,2237,2237,2237,2237,0,0,0,0,0,0
0,0,0,0,0,0,0,0,0,0,0,0,0,0,0,0,0,0,0,0,0,0,0,0,0,0,0,0,0,0,0,0,0,0,0,0,0,0,0,0,0,0,0,1980,1969,1969,1969,1969,1969,1969,1969,1969,1969,1969,1980,1980,1980,1980,1980,1980,1992,1992,1992,1992,2003,2003,2003,2003,1992,1992,1992,1992,1992,1992,1992,1992,1992,2003,2003,2015,2015,2015,2015,2015,2015,2015,2015,2015,2015,2015,2015,2015,2027,2039,2039,2039,2039,2039,2039,2051,2051,2063,2114,2114,2140,2140,2140,2140,2153,2153,2153,2153,2167,2167,2167,2167,2167,2167,2167,2167,2167,2167,2167,2181,2181,2167,2167,2167,2153,2153,2153,2153,2153,2153,2140,2140,2140,2140,2140,2153,2153,2153,2153,2153,2153,2153,2153,2153,2153,2153,2153,2153,2153,2153,2153,2153,2153,2153,2153,2153,2153,2153,2153,2153,2153,2153,2153,2153,2153,2153,2153,2153,2153,2153,2153,2153,2153,2153,2153,2153,2153,2140,2140,2140,2140,2140,2140,2140,2140,2140,2140,2140,2153,2153,2153,2153,2140,2140,2140,2140,2140,2140,2140,2140,2140,2140,2140,2140,2140,2140,2140,2140,2140,2140,2140,2140,2140,2140,2140,2140,2140,2140,2140,2153,2140,2140,2140,2140,2140,2140,2140,2140,2140,2140,2140,2140,2140,2140,2140,2140,2140,2153,2153,2153,2153,2153,2153,2153,2153,2140,2140,2140,2140,2140,2140,2140,2140,2140,2140,2140,2140,2153,2153,2153,2153,2153,2153,2153,2140,2153,2153,2153,2153,2153,2153,2153,2153,2153,2153,2153,2153,2153,2153,2153,2153,2153,2153,2153,2153,2153,2153,2153,2153,2153,2153,2153,2153,2153,2153,2153,2153,2153,2153,2153,2153,2153,2153,2153,2153,2153,2153,2153,2153,2153,2167,2167,2167,2167,2167,2167,2167,2167,2167,2153,2153,2153,2167,2167,2167,2167,2167,2167,2167,2181,2181,2194,2194,2194,2194,2194,2194,2194,2194,2194,2194,2194,2194,2194,2194,2194,2194,2194,2194,2194,2194,2194,2194,2194,2194,2194,2194,2194,2194,2194,2194,2194,2194,2194,2181,2181,2181,2194,2194,2194,2194,2208,2208,2208,2208,2208,2208,2208,2208,2208,2208,2208,2208,2208,2194,2194,2181,2181,2194,2194,2208,2208,2208,2208,2208,2208,2208,2208,2208,2208,2208,2208,2208,2208,2208,2208,2208,2208,2208,2208,2208,2208,2208,2208,2208,2208,2208,2208,2223,2223,2223,2223,2208,2208,2208,2208,2208,2208,2223,2223,2223,2223,2223,2223,2223,2223,2223,2223,2223,2223,2223,2223,2223,2223,2223,2223,2223,2223,2223,2223,2223,2223,2223,2223,2223,2223,2223,2223,2223,2223,2223,2237,2223,2223,2223,2223,2223,2223,2223,2223,2223,2223,2223,2223,2223,2223,2223,2223,2223,2223,2223,2223,2223,2208,2208,2223,2223,2223,2223,2223,2223,2223,2223,2223,2223,2223,2223,2223,2223,2223,2223,2223,2237,2237,2237,2237,2237,2237,2252,2237,2237,2237,2237,2223,2223,2223,2223,2223,2223,2223,2223,2223,2237,2237,2237,2237,2237,2237,2237,2237,2237,2237,2237,2237,2237,2237,2237,2237,2237,2237,2252,2252,2252,2252,2252,2237,2237,2237,2237,2252,2252,2252,2237,2237,2237,2237,2252,2237,2237,2237,2252,2252,2252,2237,2237,2237,2237,2237,2252,2252,2252,2252,2252,2252,2252,2252,2252,2252,2252,2252,2266,2266,2266,2266,2266,2266,2266,2252,2252,2252,2252,2252,2252,2252,2252,2252,2252,2252,2252,2252,2266,2266,2266,2266,2266,2266,2266,2266,2266,2266,2266,2266,2252,2252,2252,2237,2237,2252,2252,2252,2252,2252,2252,2252,2252,2252,2252,2237,2237,2237,0,0,0,0,0,0
0,0,0,0,0,0,0,0,0,0,0,0,0,0,0,0,0,0,0,0,0,0,0,0,0,0,0,0,0,0,0,0,0,0,0,0,0,0,0,0,0,0,0,1992,1980,1980,1980,1969,1969,1980,1980,1980,1980,1980,1980,1980,1980,1980,1980,1980,1992,1992,1992,1992,2003,2003,2003,2003,2003,1992,1992,1992,1992,1992,1992,1992,2003,2003,2003,2015,2015,2027,2027,2027,2027,2015,2015,2015,2027,2027,2027,2027,2027,2039,2039,2039,2039,2039,2039,2051,2051,2063,2088,2127,2140,2140,2140,2153,2153,2153,2167,2167,2167,2167,2167,2167,2167,2167,2181,2181,2181,2181,2181,2181,2181,2167,2167,2167,2167,2167,2153,2153,2153,2153,2153,2153,2153,2153,2153,2153,2153,2153,2167,2167,2167,2153,2153,2153,2153,2153,2153,2153,2153,2153,2153,2153,2153,2153,2153,2153,2153,2153,2153,2153,2153,2153,2153,2153,2153,2153,2153,2153,2153,2153,2153,2153,2153,2153,2153,2153,2153,2153,2153,2153,2153,2153,2153,2153,2153,2153,2153,2153,2153,2153,2153,2153,2153,2153,2140,2140,2140,2140,2140,2140,2140,2140,2140,2140,2140,2140,2140,2140,2140,2140,2153,2140,2140,2140,2153,2153,2140,2153,2153,2153,2153,2153,2153,2153,2153,2153,2153,2153,2153,2153,2153,2153,2153,2153,2153,2153,2153,2153,2153,2153,2153,2153,2153,2153,2153,2153,2153,2153,2153,2153,2153,2153,2153,2153,2153,2153,2153,2153,2153,2153,2153,2153,2153,2153,2153,2153,2153,2153,2153,2153,2153,2153,2153,2153,2153,2153,2153,2153,2153,2153,2153,2153,2153,2153,2153,2153,2153,2153,2153,2153,2153,2153,2153,2153,2153,2153,2153,2153,2153,2153,2153,2153,2153,2153,2153,2153,2153,2153,2167,2167,2181,2181,2181,2181,2167,2167,2167,2167,2181,2181,2181,2181,2181,2181,2181,2181,2181,2181,2181,2181,2194,2194,2194,2194,2208,2208,2208,2208,2208,2208,2208,2208,2208,2208,2208,2208,2208,2208,2208,2208,2208,2208,2208,2208,2208,2208,2208,2208,2208,2208,2208,2208,2208,2194,2194,2194,2194,2194,2194,2194,2194,2208,2208,2208,2208,2208,2208,2208,2208,2208,2208,2208,2208,2208,2208,2208,2194,2194,2208,2208,2208,2208,2208,2208,2208,2208,2208,2208,2208,2208,2208,2208,2208,2208,2208,2208,2208,2208,2208,2208,2208,2208,2223,2223,2223,2223,2223,2223,2223,2223,2223,2223,2223,2223,2223,2223,2223,2223,2223,2223,2223,2223,2223,2223,2223,2223,2223,2223,2223,2223,2223,2223,2223,2223,2223,2223,2223,2237,2237,2223,2223,2223,2237,2223,2223,2223,2237,2237,2237,2237,2237,2237,2237,2237,2223,2223,2223,2223,2223,2223,2223,2223,2223,2223,2223,2223,2223,2223,2223,2223,2223,2223,2223,2223,2223,2223,2223,2223,2237,2237,2237,2237,2237,2237,2237,2237,2237,2237,2237,2223,2223,2237,2237,2237,2237,2237,2252,2252,2252,2252,2237,2237,2237,2237,2237,2223,2223,2223,2223,2237,2237,2237,2237,2237,2237,2237,2237,2237,2237,2252,2252,2237,2237,2237,2252,2237,2237,2237,2237,2237,2252,2252,2252,2252,2252,2252,2237,2237,2252,2252,2252,2252,2252,2252,2252,2252,2252,2237,2237,2237,2252,2252,2252,2252,2252,2252,2252,2252,2252,2266,2266,2252,2252,2252,2252,2252,2252,2252,2252,2266,2266,2266,2266,2266,2266,2266,2266,2266,2266,2266,2266,2266,2266,2266,2266,2266,2266,2266,2266,2266,2266,2266,2266,2266,2266,2266,2266,2281,2266,2266,2266,2266,2252,2252,2252,2266,2266,2266,2266,2266,2266,2266,2266,2266,2266,2266,2252,2237,2237,2237,0,0,0,0,0,0
0,0,0,0,0,0,0,0,0,0,0,0,0,0,0,0,0,0,0,0,0,0,0,0,0,0,0,0,0,0,0,0,0,0,0,0,0,0,0,0,0,0,0,1980,1980,1969,1969,1980,1980,1980,1980,1980,1980,1980,1980,1980,1980,1980,1980,1980,1980,1992,1992,1992,2003,2003,2003,2003,2003,2003,1992,1992,1992,1992,1992,1992,2003,2003,2003,2015,2027,2027,2027,2027,2039,2027,2027,2027,2027,2027,2039,2039,2039,2039,2039,2039,2051,2051,2051,2051,2051,2063,2076,2114,2127,2140,2140,2153,2167,2167,2167,2181,2167,2167,2181,2181,2181,2181,2181,2181,2181,2181,2181,2181,2181,2181,2181,2181,2181,2167,2167,2153,2153,2153,2153,2153,2153,2153,2153,2167,2167,2167,2167,2167,2167,2167,2167,2167,2153,2153,2153,2153,2153,2153,2181,2167,2167,2167,2167,2167,2167,2153,2153,2167,2167,2167,2167,2167,2167,2167,2167,2167,2153,2153,2167,2167,2167,2167,2167,2167,2167,2153,2153,2153,2153,2153,2153,2153,2153,2153,2153,2153,2153,2153,2153,2153,2153,2153,2153,2153,2153,2153,2140,2140,2140,2140,2140,2140,2140,2153,2153,2140,2140,2153,2153,2153,2153,2153,2153,2153,2153,2153,2153,2153,2153,2153,2153,2153,2153,2153,2153,2153,2153,2153,2153,2153,2153,2153,2153,2153,2153,2153,2153,2153,2153,2153,2153,2153,2153,2153,2153,2153,2153,2167,2167,2167,2167,2167,2167,2167,2167,2167,2167,2167,2167,2167,2167,2153,2153,2153,2167,2167,2167,2167,2167,2167,2167,2153,2153,2153,2167,2153,2153,2167,2167,2167,2153,2153,2153,2153,2153,2167,2167,2167,2153,2153,2167,2153,2153,2153,2167,2167,2167,2153,2167,2181,2181,2167,2167,2167,2167,2167,2181,2181,2181,2181,2181,2181,2181,2181,2181,2181,2181,2181,2181,2194,2194,2194,2194,2194,2194,2181,2181,2194,2194,2208,2208,2208,2208,2208,2208,2208,2208,2208,2208,2208,2208,2208,2208,2208,2208,2208,2208,2208,2208,2208,2208,2208,2208,2208,2208,2208,2208,2208,2208,2208,2208,2208,2208,2194,2194,2208,2208,2208,2208,2208,2208,2208,2208,2208,2208,2208,2208,2208,2208,2208,2208,2208,2208,2208,2208,2208,2208,2208,2208,2208,2208,2208,2208,2208,2208,2223,2208,2208,2208,2208,2208,2208,2208,2208,2208,2223,2223,2223,2223,2223,2223,2223,2223,2237,2223,2223,2223,2223,2237,2223,2223,2223,2223,2223,2223,2223,2223,2223,2237,2237,2237,2223,2223,2237,2237,2237,2237,2237,2237,2237,2237,2237,2237,2237,2237,2237,2237,2237,2237,2237,2237,2237,2237,2237,2237,2237,2237,2237,2237,2252,2237,2237,2237,2237,2237,2237,2223,2223,2223,2223,2223,2237,2237,2237,2237,2237,2237,2237,2237,2223,2223,2223,2223,2237,2252,2252,2252,2252,2252,2237,2237,2237,2237,2237,2237,2237,2237,2237,2237,2237,2237,2237,2237,2252,2252,2252,2266,2252,2252,2252,2237,2237,2237,2223,2223,2223,2223,2237,2237,2237,2237,2237,2237,2252,2237,2252,2252,2252,2252,2252,2252,2252,2252,2252,2252,2237,2237,2237,2252,2252,2252,2252,2252,2252,2252,2252,2252,2252,2266,2266,2252,2252,2252,2252,2252,2252,2252,2252,2252,2252,2252,2252,2252,2252,2252,2252,2266,2266,2266,2266,2266,2266,2266,2266,2266,2266,2266,2266,2266,2266,2281,2281,2281,2281,2281,2281,2281,2266,2266,2266,2266,2266,2266,2266,2266,2281,2281,2281,2281,2281,2281,2281,2281,2281,2281,2281,2266,2266,2266,2266,2266,2281,2281,2266,2266,2266,2266,2281,2281,2281,2266,2266,2266,2266,2252,2252,2252,2252,0,0,0,0,0,0
0,0,0,0,0,0,0,0,0,0,0,0,0,0,0,0,0,0,0,0,0,0,0,0,0,0,0,0,0,0,0,0,0,0,0,0,0,0,0,0,0,0,0,1980,1980,1969,1969,1969,1980,1980,1980,1980,1980,1980,1980,1992,1992,1992,1992,1980,1980,1992,1992,1992,2003,2003,2003,2003,2003,2003,1992,1992,1992,1992,1992,1992,2003,2003,2003,2015,2027,2027,2027,2027,2039,2039,2027,2027,2039,2039,2039,2039,2039,2039,2039,2051,2051,2051,2051,2051,2051,2063,2063,2076,2088,2101,2114,2127,2153,2167,2167,2181,2167,2167,2181,2181,2181,2181,2181,2181,2181,2181,2181,2194,2194,2194,2194,2194,2194,2181,2167,2153,2153,2153,2153,2153,2153,2153,2153,2167,2167,2167,2167,2167,2167,2167,2167,2167,2167,2153,2153,2167,2167,2194,2194,2181,2181,2181,2181,2167,2167,2167,2167,2167,2167,2167,2167,2167,2167,2167,2167,2167,2167,2167,2167,2181,2181,2181,2167,2167,2167,2167,2167,2153,2153,2153,2153,2153,2153,2153,2153,2153,2153,2153,2153,2153,2153,2153,2153,2153,2153,2153,2153,2153,2153,2153,2153,2153,2153,2153,2153,2153,2153,2153,2153,2153,2153,2153,2153,2153,2153,2153,2167,2167,2167,2167,2167,2167,2167,2167,2167,2167,2167,2167,2167,2167,2167,2167,2153,2153,2153,2153,2153,2153,2153,2167,2167,2167,2167,2167,2167,2167,2167,2167,2167,2167,2181,2181,2181,2181,2181,2181,2181,2181,2181,2181,2181,2167,2167,2167,2167,2167,2181,2181,2181,2181,2181,2167,2167,2167,2167,2167,2167,2167,2167,2167,2167,2167,2167,2167,2167,2167,2181,2181,2167,2167,2167,2181,2181,2181,2181,2181,2194,2181,2181,2181,2181,2181,2181,2181,2181,2181,2194,2194,2194,2194,2194,2194,2194,2194,2194,2194,2194,2194,2194,2194,2194,2194,2194,2194,2194,2194,2194,2194,2194,2208,2208,2208,2208,2208,2208,2208,2208,2208,2208,2208,2208,2208,2208,2208,2208,2208,2208,2208,2208,2208,2208,2208,2208,2208,2208,2208,2208,2208,2223,2223,2223,2223,2223,2208,2208,2208,2208,2208,2208,2208,2208,2208,2208,2208,2208,2208,2208,2223,2223,2223,2223,2223,2223,2223,2208,2208,2208,2208,2223,2208,2208,2223,2223,2223,2223,2223,2223,2223,2223,2223,2223,2223,2223,2223,2223,2223,2223,2223,2223,2223,2223,2223,2223,2237,2237,2223,2223,2223,2237,2237,2223,2223,2237,2237,2237,2237,2237,2237,2237,2237,2237,2237,2237,2237,2237,2237,2237,2237,2237,2237,2237,2237,2237,2237,2237,2252,2252,2237,2237,2237,2237,2237,2237,2237,2237,2237,2252,2237,2252,2252,2252,2252,2252,2252,2252,2252,2237,2237,2252,2237,2237,2237,2252,2252,2252,2237,2237,2237,2237,2237,2223,2223,2223,2237,2252,2252,2252,2252,2252,2252,2252,2252,2252,2252,2252,2252,2252,2237,2237,2252,2252,2252,2252,2252,2252,2266,2266,2252,2252,2252,2252,2237,2237,2237,2237,2237,2237,2237,2237,2237,2237,2252,2252,2252,2252,2252,2252,2266,2266,2266,2266,2266,2266,2252,2252,2252,2252,2252,2266,2266,2266,2266,2266,2266,2252,2252,2266,2266,2266,2266,2266,2266,2266,2252,2252,2252,2252,2252,2252,2252,2252,2252,2252,2266,2266,2266,2266,2281,2281,2281,2266,2266,2266,2266,2266,2266,2266,2281,2281,2281,2281,2281,2281,2281,2281,2281,2281,2281,2266,2266,2266,2266,2266,2266,2266,2281,2281,2281,2281,2281,2281,2281,2281,2281,2281,2281,2281,2281,2281,2281,2281,2281,2266,2266,2266,2266,2266,2281,2281,2281,2281,2281,2281,2281,2266,2252,2252,2252,0,0,0,0,0,0
0,0,0,0,0,0,0,0,0,0,0,0,0,0,0,0,0,0,0,0,0,0,0,0,0,0,0,0,0,0,0,0,0,0,0,0,0,0,0,0,0,0,0,1980,1980,1969,1969,1969,1980,1980,1980,1980,1980,1980,1980,1992,1992,1992,1992,1992,1992,1992,1992,1992,1992,1992,2003,2003,2003,2003,2003,1992,1992,2003,2003,2003,2003,2003,2015,2027,2027,2039,2039,2039,2039,2039,2027,2027,2039,2039,2039,2039,2051,2051,2051,2051,2051,2051,2051,2051,2051,2063,2063,2076,2088,2101,2101,2101,2114,2153,2167,2167,2167,2167,2181,2181,2181,2181,2181,2181,2181,2181,2194,2194,2194,2194,2194,2194,2194,2194,2194,2194,2194,2194,2181,2181,2167,2167,2167,2181,2181,2194,2181,2181,2181,2181,2181,2181,2181,2181,2181,2194,2194,2194,2194,2194,2181,2181,2181,2181,2181,2181,2181,2181,2181,2181,2181,2181,2181,2181,2181,2181,2167,2167,2181,2181,2181,2181,2181,2181,2181,2167,2167,2167,2167,2167,2167,2167,2153,2153,2153,2153,2153,2153,2153,2167,2167,2167,2167,2167,2167,2167,2167,2167,2167,2167,2167,2153,2153,2153,2153,2153,2153,2153,2153,2153,2153,2153,2167,2167,2153,2167,2167,2167,2167,2167,2167,2167,2167,2167,2167,2167,2167,2181,2181,2167,2167,2167,2167,2167,2153,2153,2153,2167,2167,2167,2167,2181,2181,2181,2181,2181,2181,2181,2181,2181,2181,2181,2181,2181,2181,2181,2181,2181,2181,2181,2181,2181,2181,2181,2181,2181,2181,2181,2181,2194,2194,2181,2181,2181,2194,2194,2194,2194,2181,2181,2194,2181,2181,2181,2181,2181,2181,2181,2181,2181,2181,2181,2181,2181,2181,2181,2194,2194,2194,2194,2194,2194,2194,2181,2181,2194,2194,2194,2194,2194,2194,2194,2194,2194,2194,2194,2194,2194,2194,2194,2194,2194,2194,2194,2194,2194,2194,2194,2194,2208,2208,2208,2208,2223,2223,2223,2223,2223,2223,2223,2223,2208,2208,2223,2223,2223,2223,2223,2223,2223,2223,2223,2223,2223,2223,2223,2223,2223,2223,2223,2223,2223,2223,2223,2223,2208,2208,2208,2208,2208,2208,2208,2208,2208,2223,2223,2223,2223,2223,2223,2223,2223,2223,2223,2223,2223,2223,2223,2223,2223,2223,2223,2223,2223,2223,2223,2237,2237,2237,2237,2237,2237,2223,2223,2223,2223,2223,2223,2237,2237,2237,2237,2237,2252,2237,2237,2237,2237,2252,2237,2237,2237,2237,2252,2237,2237,2237,2237,2237,2252,2252,2237,2237,2237,2252,2252,2237,2237,2237,2252,2252,2252,2237,2237,2237,2252,2252,2252,2252,2252,2252,2252,2252,2252,2252,2252,2252,2252,2252,2252,2252,2252,2252,2252,2252,2252,2266,2266,2266,2252,2252,2252,2252,2252,2252,2237,2237,2252,2252,2237,2237,2237,2237,2237,2266,2252,2252,2266,2266,2252,2252,2252,2252,2252,2252,2252,2252,2252,2252,2252,2266,2266,2266,2266,2266,2266,2266,2266,2252,2252,2252,2252,2252,2237,2237,2237,2237,2252,2252,2266,2266,2266,2266,2266,2252,2266,2266,2266,2266,2266,2266,2266,2266,2266,2266,2252,2252,2252,2266,2266,2266,2266,2266,2266,2266,2266,2266,2266,2266,2266,2266,2266,2266,2266,2266,2266,2252,2252,2252,2252,2252,2252,2252,2252,2266,2266,2281,2281,2281,2281,2281,2281,2266,2266,2266,2266,2266,2281,2281,2281,2281,2281,2281,2281,2281,2281,2281,2281,2281,2281,2281,2281,2281,2281,2281,2281,2281,2281,2281,2281,2281,2281,2281,2281,2281,2281,2281,2281,2281,2281,2281,2281,2281,2266,2266,2281,2281,2281,2281,2281,2281,2281,2281,2281,2266,2252,2252,2252,0,0,0,0,0,0
0,0,0,0,0,0,0,0,0,0,0,0,0,0,0,0,0,0,0,0,0,0,0,0,0,0,0,0,0,0,0,0,0,0,0,0,0,0,0,0,0,0,0,1992,1980,1969,1969,1969,1969,1980,1980,1980,1980,1980,1980,1992,1980,1980,1992,1992,1992,1992,1992,1992,1992,1992,2003,2003,2003,2003,2003,2003,2003,2003,2003,2003,2015,2015,2015,2027,2039,2039,2039,2039,2039,2039,2039,2039,2039,2039,2039,2039,2039,2039,2039,2039,2039,2051,2051,2051,2051,2063,2063,2076,2088,2088,2088,2088,2101,2114,2153,2167,2167,2167,2181,2181,2181,2194,2181,2181,2194,2194,2194,2194,2194,2194,2194,2194,2208,2208,2194,2194,2194,2194,2181,2181,2181,2167,2167,2181,2181,2194,2194,2194,2194,2194,2194,2194,2194,2194,2194,2208,2194,2194,2194,2194,2194,2194,2194,2194,2194,2194,2208,2208,2194,2194,2194,2194,2194,2194,2181,2181,2181,2181,2181,2181,2181,2181,2181,2181,2181,2167,2167,2167,2167,2167,2167,2167,2167,2167,2167,2167,2167,2167,2167,2167,2167,2167,2167,2167,2167,2181,2167,2167,2167,2167,2167,2167,2167,2167,2167,2167,2167,2167,2167,2167,2167,2167,2167,2167,2167,2167,2181,2181,2181,2167,2167,2181,2181,2181,2181,2181,2181,2181,2181,2181,2181,2181,2181,2167,2167,2167,2167,2181,2181,2181,2181,2194,2181,2181,2181,2194,2194,2194,2194,2194,2194,2194,2194,2194,2194,2194,2194,2194,2194,2194,2194,2194,2194,2194,2194,2194,2194,2194,2194,2194,2194,2194,2194,2194,2194,2194,2194,2194,2194,2194,2194,2194,2194,2194,2194,2194,2194,2194,2194,2194,2194,2194,2194,2194,2194,2194,2194,2194,2194,2194,2194,2194,2194,2194,2194,2194,2194,2194,2194,2194,2194,2208,2208,2208,2208,2208,2208,2208,2208,2208,2208,2208,2208,2208,2208,2208,2208,2208,2208,2223,2223,2223,2223,2223,2223,2223,2223,2223,2223,2223,2223,2223,2223,2223,2223,2223,2223,2223,2223,2223,2223,2223,2223,2223,2223,2223,2223,2223,2237,2237,2237,2237,2223,2223,2223,2223,2208,2208,2223,2208,2208,2208,2223,2223,2223,2223,2223,2223,2223,2237,2223,2223,2237,2237,2237,2223,2223,2223,2237,2223,2223,2237,2237,2237,2237,2237,2237,2237,2237,2237,2237,2237,2237,2237,2237,2237,2237,2237,2237,2237,2237,2237,2252,2252,2252,2252,2252,2252,2252,2252,2252,2252,2252,2252,2252,2252,2252,2252,2252,2252,2252,2252,2252,2252,2252,2252,2252,2252,2252,2252,2252,2252,2252,2252,2252,2252,2252,2252,2252,2252,2266,2266,2252,2252,2252,2252,2252,2252,2252,2252,2266,2266,2266,2266,2266,2266,2266,2266,2266,2266,2266,2266,2266,2266,2266,2252,2252,2252,2252,2252,2252,2252,2252,2252,2266,2266,2266,2266,2266,2266,2252,2252,2252,2252,2266,2266,2266,2266,2266,2266,2266,2266,2266,2266,2266,2266,2266,2266,2266,2266,2252,2252,2252,2252,2252,2266,2266,2266,2266,2266,2266,2266,2266,2266,2266,2266,2266,2266,2266,2266,2266,2281,2281,2281,2281,2266,2266,2266,2266,2266,2266,2266,2266,2266,2266,2266,2281,2281,2281,2281,2281,2266,2266,2266,2266,2266,2266,2252,2252,2252,2252,2266,2266,2266,2266,2281,2281,2281,2281,2281,2281,2281,2281,2281,2281,2281,2281,2281,2281,2281,2281,2281,2297,2297,2281,2281,2297,2281,2281,2281,2281,2281,2281,2281,2281,2281,2297,2297,2297,2297,2297,2281,2281,2281,2281,2281,2281,2281,2281,2281,2281,2281,2281,2281,2281,2281,2281,2281,2281,2281,2281,2281,2281,2281,2266,2266,2266,2266,0,0,0,0,0,0
0,0,0,0,0,0,0,0,0,0,0,0,0,0,0,0,0,0,0,0,0,0,0,0,0,0,0,0,0,0,0,0,0,0,0,0,0,0,0,0,0,0,0,2003,1958,1958,1969,1969,1969,1980,1980,1980,1980,1980,1980,1980,1980,1980,1992,1992,1992,2003,1992,1992,2003,2003,2003,2003,2003,2003,2003,2003,2003,2003,2003,2003,2015,2015,2015,2027,2039,2039,2039,2039,2039,2039,2039,2039,2039,2039,2039,2039,2039,2039,2039,2039,2039,2051,2051,2051,2063,2063,2076,2076,2088,2088,2076,2076,2101,2101,2127,2153,2153,2181,2181,2194,2194,2194,2194,2194,2194,2194,2208,2208,2208,2208,2208,2208,2208,2208,2208,2208,2194,2194,2194,2181,2181,2181,2181,2181,2194,2208,2194,2194,2194,2208,2208,2208,2208,2208,2208,2208,2208,2208,2194,2194,2194,2194,2194,2194,2194,2208,2208,2208,2194,2194,2208,2194,2194,2194,2194,2194,2194,2194,2194,2194,2194,2181,2181,2194,2194,2194,2194,2194,2194,2194,2194,2194,2181,2181,2194,2194,2181,2181,2181,2194,2194,2194,2181,2181,2181,2181,2181,2181,2181,2181,2181,2181,2194,2194,2194,2194,2181,2181,2181,2181,2194,2194,2194,2194,2194,2194,2194,2194,2194,2194,2194,2194,2194,2194,2194,2194,2194,2194,2194,2194,2194,2194,2194,2194,2194,2194,2194,2194,2194,2194,2194,2194,2194,2194,2194,2194,2194,2194,2194,2194,2194,2194,2194,2194,2194,2194,2194,2194,2194,2194,2194,2194,2194,2194,2194,2194,2194,2194,2194,2194,2194,2194,2194,2194,2194,2194,2194,2194,2194,2194,2194,2194,2194,2194,2194,2194,2194,2194,2194,2194,2194,2194,2194,2208,2208,2194,2208,2194,2194,2194,2194,2194,2194,2194,2194,2208,2208,2208,2208,2208,2208,2208,2208,2208,2208,2208,2208,2208,2208,2208,2208,2208,2208,2208,2208,2208,2208,2208,2208,2223,2223,2223,2223,2237,2237,2237,2223,2223,2223,2223,2223,2223,2223,2223,2223,2223,2237,2223,2223,2223,2223,2223,2223,2223,2223,2223,2237,2237,2237,2252,2237,2237,2237,2237,2223,2223,2223,2223,2223,2223,2223,2223,2223,2223,2223,2223,2223,2223,2237,2237,2237,2237,2237,2237,2237,2237,2237,2237,2237,2237,2237,2237,2237,2237,2252,2252,2252,2252,2252,2252,2252,2252,2252,2237,2237,2252,2252,2252,2252,2252,2252,2252,2252,2252,2266,2252,2252,2252,2266,2266,2252,2252,2266,2266,2266,2266,2266,2266,2266,2266,2266,2266,2252,2252,2266,2266,2266,2252,2252,2266,2266,2266,2266,2252,2266,2266,2266,2266,2266,2266,2266,2266,2266,2266,2266,2266,2266,2266,2266,2266,2266,2266,2266,2266,2266,2266,2266,2266,2266,2266,2266,2281,2266,2266,2266,2266,2266,2252,2252,2252,2252,2252,2252,2266,2266,2266,2266,2266,2266,2266,2266,2252,2252,2252,2266,2266,2266,2266,2266,2266,2266,2266,2266,2266,2266,2266,2266,2266,2266,2252,2252,2266,2266,2266,2266,2266,2266,2266,2266,2266,2266,2266,2266,2266,2266,2266,2281,2281,2281,2281,2281,2281,2281,2281,2281,2281,2281,2281,2281,2281,2281,2266,2266,2281,2281,2281,2281,2281,2281,2281,2281,2281,2281,2266,2266,2266,2266,2266,2266,2266,2266,2266,2266,2281,2281,2281,2281,2281,2281,2281,2281,2281,2281,2281,2281,2281,2281,2281,2281,2297,2297,2297,2297,2297,2297,2297,2297,2281,2281,2281,2281,2281,2281,2297,2297,2297,2312,2312,2312,2297,2297,2312,2297,2297,2297,2281,2281,2281,2281,2281,2281,2281,2281,2281,2281,2281,2281,2281,2297,2297,2281,2281,2281,2281,2266,2266,2266,2266,0,0,0,0,0,0
0,0,0,0,0,0,0,0,0,0,0,0,0,0,0,0,0,0,0,0,0,0,0,0,0,0,0,0,0,0,0,0,0,0,0,0,0,0,0,0,0,0,0,1992,1958,1958,1969,1969,1980,1980,1992,1992,1992,1980,1980,1980,1992,1992,1992,1992,1992,1992,2003,2003,2003,2003,2003,2003,2003,2003,2003,2003,2003,2003,2003,2015,2015,2015,2015,2027,2027,2027,2039,2039,2039,2039,2039,2039,2039,2039,2039,2039,2039,2039,2039,2039,2039,2051,2051,2063,2063,2076,2076,2076,2088,2088,2076,2076,2088,2101,2114,2127,2140,2181,2194,2194,2194,2194,2194,2194,2208,2208,2208,2208,2208,2208,2208,2208,2208,2208,2208,2208,2208,2208,2194,2194,2194,2194,2194,2194,2194,2208,2208,2194,2194,2208,2208,2208,2208,2208,2208,2208,2208,2208,2194,2194,2208,2208,2194,2194,2208,2208,2208,2208,2208,2208,2208,2208,2208,2194,2194,2194,2194,2194,2194,2194,2194,2194,2194,2194,2194,2194,2194,2194,2194,2194,2194,2194,2194,2194,2194,2194,2194,2194,2194,2194,2194,2194,2194,2194,2194,2194,2181,2181,2181,2181,2194,2194,2194,2194,2194,2194,2194,2194,2194,2194,2194,2194,2194,2194,2194,2194,2194,2194,2194,2194,2194,2194,2194,2194,2194,2194,2194,2194,2194,2194,2194,2194,2194,2194,2194,2194,2194,2194,2194,2194,2194,2194,2194,2194,2194,2194,2194,2194,2194,2194,2194,2194,2194,2194,2194,2194,2194,2194,2194,2194,2194,2194,2194,2194,2194,2194,2194,2194,2194,2194,2194,2208,2208,2208,2208,2208,2208,2194,2194,2194,2194,2194,2208,2208,2208,2208,2194,2194,2208,2208,2208,2208,2208,2208,2208,2208,2208,2208,2208,2208,2208,2208,2208,2208,2208,2208,2208,2208,2208,2208,2208,2208,2208,2208,2208,2223,2208,2208,2208,2208,2208,2208,2208,2208,2223,2223,2223,2223,2223,2237,2237,2237,2237,2237,2237,2237,2237,2237,2223,2223,2223,2223,2223,2223,2223,2237,2237,2237,2237,2237,2237,2223,2223,2237,2237,2237,2237,2237,2252,2252,2252,2252,2252,2237,2237,2237,2237,2237,2237,2223,2223,2223,2237,2237,2223,2237,2237,2237,2237,2237,2252,2252,2252,2252,2252,2252,2252,2252,2252,2237,2237,2252,2252,2252,2252,2252,2252,2252,2252,2252,2252,2252,2252,2252,2252,2252,2252,2252,2266,2252,2252,2252,2266,2266,2266,2266,2266,2266,2266,2266,2266,2266,2266,2266,2266,2266,2266,2266,2266,2266,2266,2266,2266,2266,2266,2266,2266,2266,2266,2266,2266,2266,2266,2266,2266,2266,2266,2266,2266,2266,2266,2281,2266,2266,2266,2266,2266,2266,2266,2266,2266,2266,2266,2266,2266,2281,2281,2281,2281,2281,2281,2281,2281,2281,2281,2266,2266,2266,2266,2266,2266,2266,2266,2266,2266,2266,2266,2266,2266,2266,2266,2266,2266,2266,2266,2266,2266,2266,2266,2266,2266,2266,2266,2281,2281,2281,2281,2266,2266,2266,2266,2266,2266,2266,2266,2266,2266,2281,2281,2281,2281,2281,2281,2281,2281,2281,2281,2281,2281,2281,2281,2281,2281,2281,2281,2297,2297,2297,2281,2281,2281,2281,2281,2281,2281,2281,2281,2281,2281,2281,2281,2281,2281,2281,2281,2266,2281,2281,2281,2281,2281,2281,2281,2281,2281,2297,2297,2297,2297,2297,2297,2297,2281,2281,2281,2281,2297,2297,2297,2297,2297,2297,2297,2297,2297,2297,2297,2297,2281,2281,2281,2281,2297,2297,2297,2297,2312,2312,2312,2327,2312,2312,2312,2297,2297,2297,2281,2281,2281,2281,2281,2281,2281,2281,2281,2281,2281,2281,2297,2297,2281,2281,2281,2281,2281,2266,2266,2266,0,0,0,0,0,0
0,0,0,0,0,0,0,0,0,0,0,0,0,0,0,0,0,0,0,0,0,0,0,0,0,0,0,0,0,0,0,0,0,0,0,0,0,0,0,0,0,0,0,1992,1969,1969,1980,1980,1980,1980,1992,1992,1992,1980,1980,1992,1980,1980,1992,1992,1992,1992,2003,2003,2003,2003,2003,2003,2003,2003,2003,2003,2003,2003,2015,2015,2015,2015,2015,2027,2027,2027,2039,2039,2039,2039,2039,2039,2039,2039,2039,2039,2039,2039,2039,2039,2039,2051,2051,2063,2076,2076,2076,2076,2088,2088,2076,2076,2088,2088,2088,2101,2140,2181,2181,2194,2194,2208,2208,2208,2208,2208,2208,2208,2208,2208,2208,2208,2208,2223,2208,2208,2208,2208,2194,2194,2194,2208,2194,2208,2208,2208,2208,2208,2208,2208,2208,2208,2208,2208,2223,2208,2208,2208,2208,2208,2208,2208,2208,2208,2208,2208,2208,2208,2208,2208,2208,2208,2208,2208,2208,2208,2194,2194,2194,2194,2194,2194,2194,2194,2194,2194,2194,2194,2194,2194,2194,2194,2194,2194,2194,2194,2194,2194,2194,2194,2194,2194,2194,2194,2194,2194,2194,2194,2194,2194,2194,2194,2194,2194,2194,2194,2194,2194,2194,2194,2194,2194,2194,2194,2194,2194,2194,2194,2194,2194,2194,2194,2194,2194,2194,2194,2194,2194,2194,2194,2194,2194,2194,2208,2208,2194,2194,2194,2208,2194,2194,2208,2208,2208,2208,2208,2208,2208,2194,2194,2194,2194,2194,2194,2194,2194,2194,2194,2194,2194,2194,2208,2208,2208,2208,2194,2194,2194,2194,2194,2208,2208,2208,2208,2208,2208,2208,2208,2208,2208,2208,2208,2208,2208,2208,2208,2208,2208,2208,2208,2208,2208,2208,2208,2208,2208,2208,2208,2208,2208,2208,2208,2208,2208,2208,2208,2208,2208,2208,2223,2223,2223,2223,2223,2223,2223,2223,2223,2223,2223,2223,2223,2223,2223,2223,2223,2223,2223,2223,2237,2237,2237,2237,2237,2252,2252,2237,2237,2237,2237,2237,2237,2237,2237,2252,2252,2252,2252,2252,2252,2252,2237,2237,2237,2237,2252,2252,2252,2252,2266,2266,2266,2252,2252,2237,2237,2237,2237,2252,2252,2252,2252,2252,2237,2237,2237,2252,2252,2252,2252,2252,2252,2252,2252,2252,2266,2252,2252,2266,2252,2252,2266,2266,2266,2266,2252,2252,2266,2266,2266,2266,2266,2266,2266,2266,2266,2266,2266,2266,2266,2266,2266,2266,2266,2266,2266,2266,2266,2266,2266,2266,2266,2266,2266,2266,2266,2266,2266,2266,2266,2266,2266,2266,2266,2266,2266,2266,2266,2266,2266,2266,2266,2266,2266,2266,2266,2266,2266,2281,2281,2281,2281,2281,2281,2281,2281,2281,2281,2281,2281,2281,2281,2281,2281,2281,2281,2281,2281,2281,2281,2281,2281,2281,2281,2281,2281,2266,2266,2266,2266,2266,2266,2266,2266,2266,2266,2266,2266,2266,2266,2266,2266,2266,2266,2266,2266,2266,2266,2281,2281,2281,2281,2281,2281,2281,2281,2281,2281,2281,2281,2281,2281,2281,2281,2281,2281,2281,2281,2281,2281,2281,2281,2281,2281,2281,2281,2281,2281,2281,2281,2281,2297,2297,2297,2297,2297,2297,2297,2297,2297,2281,2281,2281,2281,2281,2297,2297,2297,2297,2297,2297,2297,2297,2297,2297,2281,2281,2281,2281,2281,2281,2281,2281,2297,2297,2297,2297,2297,2297,2297,2297,2297,2297,2297,2297,2297,2297,2312,2312,2312,2312,2312,2312,2297,2297,2297,2297,2297,2297,2297,2297,2297,2297,2297,2297,2312,2327,2327,2327,2327,2327,2327,2312,2297,2297,2297,2281,2281,2297,2297,2297,2297,2297,2297,2297,2281,2281,2297,2297,2297,2281,2281,2281,2281,2281,2266,2266,2266,0,0,0,0,0,0
0,0,0,0,0,0,0,0,0,0,0,0,0,0,0,0,0,0,0,0,0,0,0,0,0,0,0,0,0,0,0,0,0,0,0,0,0,0,0,0,0,0,0,1992,1980,1980,1980,1980,1980,1992,1992,1992,1992,1980,1980,1992,1980,1980,1992,1992,1992,1992,2003,2003,2003,2003,2003,2015,2015,2015,2003,2003,2003,2003,2015,2015,2015,2015,2027,2027,2039,2039,2039,2039,2039,2039,2039,2039,2051,2039,2039,2039,2039,2039,2051,2051,2051,2051,2063,2063,2076,2076,2076,2076,2076,2076,2076,2076,2088,2088,2088,2101,2127,2153,2181,2194,2194,2208,2208,2208,2208,2208,2208,2208,2208,2208,2208,2208,2208,2223,2208,2208,2208,2208,2208,2208,2208,2208,2208,2208,2208,2223,2208,2208,2208,2208,2208,2208,2208,2208,2223,2223,2208,2208,2208,2208,2208,2208,2208,2208,2208,2208,2208,2208,2208,2208,2208,2208,2208,2208,2208,2208,2208,2208,2208,2208,2208,2208,2208,2208,2208,2208,2208,2194,2194,2194,2194,2208,2194,2194,2194,2194,2194,2194,2194,2194,2194,2194,2194,2194,2194,2194,2194,2194,2194,2194,2194,2208,2194,2194,2194,2194,2194,2194,2194,2194,2194,2194,2194,2194,2194,2194,2194,2194,2194,2194,2194,2208,2208,2208,2208,2208,2208,2208,2208,2208,2208,2208,2208,2208,2208,2208,2208,2208,2208,2208,2208,2208,2208,2208,2208,2208,2208,2208,2208,2208,2194,2194,2194,2208,2208,2208,2208,2208,2208,2208,2208,2208,2208,2208,2208,2208,2208,2208,2208,2208,2208,2208,2208,2208,2208,2208,2208,2208,2208,2208,2208,2208,2208,2208,2208,2208,2208,2223,2223,2223,2223,2223,2223,2223,2223,2223,2223,2223,2223,2223,2223,2223,2223,2223,2223,2223,2223,2223,2223,2223,2223,2223,2223,2223,2223,2237,2237,2223,2223,2223,2223,2237,2237,2237,2237,2237,2237,2237,2237,2252,2252,2252,2252,2252,2252,2252,2252,2252,2252,2237,2237,2237,2237,2237,2252,2266,2266,2266,2252,2252,2252,2252,2252,2252,2252,2252,2252,2266,2266,2266,2266,2266,2266,2266,2266,2266,2266,2266,2266,2252,2252,2266,2266,2252,2252,2252,2252,2266,2266,2266,2266,2266,2266,2266,2266,2266,2266,2266,2266,2266,2266,2266,2266,2266,2266,2266,2266,2266,2266,2266,2266,2266,2266,2266,2266,2266,2266,2266,2266,2266,2266,2266,2266,2266,2266,2266,2266,2266,2266,2266,2266,2266,2281,2281,2281,2281,2281,2281,2281,2281,2281,2281,2266,2266,2266,2281,2266,2266,2266,2266,2266,2266,2266,2266,2266,2281,2281,2281,2281,2281,2281,2281,2281,2281,2281,2281,2281,2281,2281,2297,2297,2281,2281,2281,2281,2281,2281,2281,2281,2281,2281,2281,2281,2281,2281,2281,2281,2281,2281,2281,2281,2281,2281,2281,2281,2281,2281,2281,2281,2266,2266,2266,2266,2266,2281,2281,2281,2281,2281,2281,2297,2297,2297,2297,2297,2297,2297,2281,2281,2281,2281,2281,2281,2281,2281,2281,2281,2281,2281,2281,2281,2281,2281,2281,2281,2297,2297,2297,2297,2297,2297,2297,2312,2312,2312,2312,2312,2297,2297,2297,2297,2281,2281,2281,2297,2297,2297,2297,2297,2297,2312,2312,2312,2312,2297,2297,2297,2297,2281,2281,2281,2297,2297,2297,2297,2297,2297,2297,2297,2297,2297,2312,2312,2312,2312,2312,2312,2312,2312,2312,2312,2312,2312,2312,2312,2312,2312,2297,2297,2297,2297,2312,2312,2327,2327,2327,2327,2327,2327,2327,2327,2327,2312,2297,2297,2297,2297,2297,2297,2297,2297,2297,2297,2297,2297,2297,2297,2297,2312,2312,2281,2281,2281,2281,2281,2266,2266,2266,0,0,0,0,0,0
0,0,0,0,0,0,0,0,0,0,0,0,0,0,0,0,0,0,0,0,0,0,0,0,0,0,0,0,0,0,0,0,0,0,0,0,0,0,0,0,0,0,0,2003,1980,1980,1980,1980,1980,1980,1992,1992,1992,1980,1980,1992,1992,1992,1992,1992,1992,2003,2003,2003,2015,2015,2015,2015,2015,2015,2003,2003,2003,2003,2015,2015,2015,2015,2027,2027,2039,2039,2039,2039,2039,2039,2039,2051,2051,2051,2039,2039,2051,2051,2051,2051,2051,2051,2051,2063,2076,2076,2076,2076,2076,2076,2076,2076,2088,2088,2088,2101,2101,2127,2153,2194,2194,2208,2223,2223,2223,2223,2223,2223,2223,2223,2223,2223,2223,2223,2223,2208,2208,2208,2208,2208,2208,2208,2223,2223,2223,2223,2223,2223,2223,2223,2223,2223,2208,2208,2223,2223,2223,2208,2208,2208,2208,2208,2208,2208,2223,2223,2223,2208,2208,2208,2208,2208,2208,2208,2208,2208,2208,2208,2208,2208,2208,2208,2208,2208,2208,2208,2208,2208,2208,2208,2208,2208,2208,2208,2208,2208,2208,2208,2208,2208,2208,2208,2194,2194,2194,2194,2194,2194,2194,2194,2194,2208,2208,2208,2208,2208,2208,2208,2194,2194,2194,2208,2208,2208,2208,2208,2208,2208,2208,2208,2208,2208,2208,2208,2208,2208,2208,2208,2208,2208,2208,2208,2208,2208,2208,2208,2208,2208,2208,2208,2208,2208,2208,2208,2208,2208,2208,2208,2208,2208,2208,2208,2208,2208,2208,2208,2208,2208,2208,2208,2208,2208,2208,2208,2208,2208,2208,2208,2208,2208,2208,2208,2223,2223,2223,2223,2223,2208,2208,2208,2223,2223,2223,2223,2223,2223,2223,2223,2223,2223,2237,2237,2237,2237,2237,2223,2223,2223,2223,2223,2223,2223,2223,2223,2223,2223,2223,2223,2223,2223,2223,2237,2237,2237,2237,2237,2237,2237,2237,2237,2237,2237,2252,2252,2252,2252,2252,2252,2252,2266,2252,2252,2252,2252,2266,2266,2252,2252,2252,2252,2252,2252,2252,2252,2252,2266,2266,2266,2266,2266,2252,2252,2252,2266,2266,2266,2266,2266,2266,2266,2266,2266,2266,2266,2266,2266,2266,2266,2266,2266,2266,2266,2266,2266,2266,2266,2266,2266,2266,2266,2266,2266,2266,2266,2266,2266,2266,2266,2266,2266,2266,2266,2266,2281,2281,2266,2266,2266,2266,2266,2266,2266,2266,2266,2281,2281,2281,2266,2281,2266,2266,2266,2266,2266,2266,2266,2266,2266,2281,2281,2281,2281,2281,2281,2281,2281,2281,2281,2281,2281,2281,2281,2281,2281,2281,2281,2281,2281,2266,2266,2266,2266,2266,2281,2281,2281,2281,2281,2281,2281,2281,2281,2281,2281,2281,2281,2281,2281,2297,2297,2297,2297,2297,2297,2297,2297,2281,2281,2281,2281,2281,2297,2297,2297,2281,2281,2281,2281,2281,2281,2281,2281,2281,2281,2281,2281,2281,2281,2281,2281,2281,2281,2281,2281,2281,2281,2297,2297,2297,2297,2297,2297,2297,2297,2297,2297,2297,2297,2297,2297,2297,2297,2297,2297,2297,2281,2281,2281,2281,2297,2297,2297,2297,2297,2297,2297,2297,2297,2297,2312,2312,2312,2312,2312,2312,2312,2312,2312,2312,2312,2312,2297,2297,2297,2312,2312,2312,2312,2312,2312,2312,2312,2327,2312,2312,2312,2312,2297,2297,2297,2297,2297,2297,2297,2297,2297,2312,2312,2312,2312,2312,2312,2312,2312,2312,2312,2327,2327,2312,2312,2327,2327,2327,2312,2312,2312,2312,2312,2312,2312,2312,2327,2343,2343,2343,2327,2327,2327,2327,2327,2327,2327,2312,2312,2312,2312,2312,2312,2312,2312,2312,2312,2312,2312,2312,2297,2297,2312,2312,2312,2297,2281,2281,2281,2281,2281,2281,2281,0,0,0,0,0,0
0,0,0,0,0,0,0,0,0,0,0,0,0,0,0,0,0,0,0,0,0,0,0,0,0,0,0,0,0,0,0,0,0,0,0,0,0,0,0,0,0,0,0,2003,2003,2003,2003,2003,2003,1992,1992,2003,1992,1992,1992,1992,1992,1992,1992,2003,2003,2003,2003,2015,2015,2015,2015,2015,2027,2015,2003,2003,2003,2003,2015,2015,2015,2015,2039,2039,2039,2039,2039,2039,2039,2039,2039,2051,2051,2051,2039,2039,2051,2051,2051,2051,2051,2051,2051,2076,2076,2076,2076,2076,2088,2088,2076,2076,2088,2088,2088,2101,2101,2114,2153,2181,2194,2208,2237,2237,2237,2237,2223,2237,2223,2223,2223,2223,2223,2223,2223,2223,2223,2223,2237,2223,2223,2223,2223,2237,2237,2237,2237,2223,2223,2223,2223,2223,2223,2223,2237,2237,2223,2223,2223,2223,2223,2223,2223,2223,2223,2223,2237,2223,2223,2223,2223,2208,2208,2208,2208,2223,2223,2223,2223,2208,2208,2208,2208,2208,2208,2208,2208,2208,2208,2208,2208,2208,2208,2208,2208,2208,2208,2208,2208,2208,2208,2208,2208,2194,2194,2194,2194,2194,2194,2208,2208,2208,2208,2208,2208,2208,2208,2208,2208,2208,2208,2208,2208,2208,2208,2208,2208,2223,2223,2208,2208,2208,2208,2208,2208,2208,2208,2208,2208,2208,2208,2208,2208,2208,2208,2208,2208,2208,2208,2208,2208,2208,2208,2223,2223,2208,2208,2223,2223,2208,2208,2208,2208,2208,2208,2208,2208,2208,2208,2208,2208,2208,2208,2223,2223,2208,2208,2208,2208,2223,2223,2223,2223,2223,2223,2223,2223,2223,2223,2223,2223,2223,2223,2223,2223,2223,2223,2223,2237,2237,2237,2237,2237,2237,2237,2237,2237,2237,2237,2237,2237,2237,2237,2237,2237,2223,2223,2223,2223,2237,2237,2237,2237,2237,2237,2237,2252,2252,2252,2252,2252,2252,2252,2252,2252,2252,2252,2252,2252,2266,2266,2266,2266,2266,2266,2266,2266,2252,2252,2252,2252,2252,2252,2252,2266,2266,2266,2266,2266,2266,2266,2266,2266,2266,2266,2266,2266,2266,2266,2266,2266,2266,2266,2266,2266,2266,2281,2281,2281,2266,2266,2281,2281,2281,2266,2266,2266,2266,2266,2266,2266,2266,2266,2266,2281,2281,2281,2281,2281,2281,2281,2281,2281,2281,2281,2281,2281,2281,2281,2281,2281,2281,2281,2281,2281,2281,2281,2281,2281,2281,2281,2281,2281,2281,2281,2281,2281,2281,2281,2281,2281,2281,2281,2281,2281,2281,2281,2281,2281,2281,2281,2281,2281,2281,2281,2281,2281,2281,2281,2281,2281,2281,2281,2281,2281,2281,2297,2297,2297,2297,2297,2297,2297,2281,2281,2281,2297,2297,2312,2312,2312,2312,2312,2312,2312,2297,2297,2281,2281,2281,2281,2297,2297,2297,2297,2297,2281,2281,2297,2281,2281,2281,2297,2297,2297,2297,2297,2297,2281,2281,2281,2281,2281,2297,2297,2297,2297,2297,2297,2312,2312,2297,2297,2297,2297,2297,2297,2297,2297,2297,2297,2297,2297,2297,2297,2297,2297,2297,2297,2297,2297,2297,2297,2297,2297,2312,2312,2312,2312,2312,2312,2312,2312,2312,2312,2327,2327,2327,2312,2312,2312,2312,2312,2312,2312,2312,2312,2327,2327,2327,2327,2327,2327,2327,2312,2312,2312,2312,2297,2297,2297,2297,2312,2312,2312,2312,2327,2327,2312,2312,2312,2327,2327,2327,2327,2327,2327,2327,2327,2327,2327,2327,2327,2327,2312,2312,2312,2312,2312,2327,2327,2343,2343,2343,2343,2343,2343,2343,2327,2327,2327,2327,2327,2327,2327,2327,2327,2327,2327,2312,2312,2312,2312,2312,2312,2312,2312,2312,2312,2312,2297,2281,2281,2281,2281,2281,2281,2281,0,0,0,0,0,0
